NCOLS 350
NROWS 32
XLLCORNER 712397.5
YLLCORNER 9560257.5
CELLSIZE 10.000000
NODATA_VALUE -99999.000000
2032.20 2029.96 2027.73 2025.57 2023.49 2021.62 2020.16 2019.19 2018.70 2018.56 2018.40 2018.38 2019.17 2020.67 2022.55 2024.96 2027.64 2029.84 2030.55 2029.46 2027.06 2023.95 2020.46 2016.70 2012.70 2008.53 2004.33 2000.25 1996.41 1992.92 1989.72 1986.63 1983.54 1980.43 1977.32 1974.20 1971.02 1967.72 1964.36 1960.99 1957.67 1954.42 1951.10 1947.56 1943.73 1939.73 1935.75 1931.53 1926.77 1921.50 1916.16 1911.09 1906.17 1901.30 1896.45 1891.66 1886.80 1881.57 1876.07 1870.70 1865.70 1861.22 1857.54 1854.82 1852.52 1850.43 1848.68 1847.28 1846.11 1844.99 1843.57 1841.02 1837.07 1832.48 1827.82 1823.55 1819.78 1816.22 1812.05 1806.62 1800.35 1794.35 1789.66 1786.55 1784.96 1784.66 1785.26 1786.41 1787.93 1789.95 1792.64 1794.86 1794.25 1792.70 1792.60 1795.17 1800.44 1806.68 1814.05 1821.92 1829.77 1838.01 1846.26 1854.09 1861.35 1868.03 1874.57 1881.80 1889.66 1896.64 1901.98 1905.13 1906.61 1907.44 1908.70 1911.00 1914.11 1917.49 1921.55 1927.38 1934.08 1940.25 1945.61 1950.56 1955.38 1960.37 1965.90 1971.70 1977.05 1981.71 1985.69 1989.15 1992.43 1995.57 1998.51 2002.50 2008.00 2013.30 2018.03 2022.68 2027.62 2032.65 2036.95 2040.27 2044.56 2049.98 2053.85 2057.12 2061.79 2067.70 2073.42 2077.68 2080.38 2082.64 2085.15 2087.67 2090.17 2093.69 2097.45 2099.85 2100.79 2100.91 2099.82 2097.88 2095.73 2093.62 2091.67 2089.79 2087.89 2085.97 2084.31 2083.44 2083.62 2084.49 2085.59 2086.63 2087.45 2088.09 2088.63 2089.17 2089.75 2090.38 2091.00 2091.50 2091.86 2092.17 2092.59 2093.26 2094.23 2095.43 2096.72 2097.99 2099.09 2099.83 2100.22 2100.39 2100.34 2100.03 2099.44 2098.27 2095.01 2090.08 2084.49 2078.71 2073.07 2067.90 2063.44 2059.84 2056.96 2054.56 2052.32 2049.96 2047.38 2044.62 2041.75 2038.89 2036.17 2033.63 2031.12 2028.45 2025.50 2022.39 2019.27 2016.08 2012.84 2009.88 2007.33 2004.97 2002.54 1999.89 1997.04 1993.99 1990.29 1985.77 1980.31 1973.45 1965.32 1956.69 1948.72 1942.59 1937.88 1935.20 1937.58 1943.87 1947.83 1947.84 1943.80 1938.85 1936.75 1939.26 1946.99 1957.48 1967.30 1975.67 1982.89 1989.28 1995.16 2000.62 2004.94 2006.88 2006.26 2003.87 2001.01 1997.74 1993.69 1989.40 1984.39 1977.47 1968.58 1959.67 1952.50 1946.66 1941.15 1935.39 1929.87 1925.71 1922.81 1919.34 1914.94 1910.61 1906.47 1902.45 1898.85 1895.82 1892.73 1889.02 1884.30 1878.85 1875.00 1875.25 1879.70 1886.07 1892.59 1899.27 1906.29 1913.27 1919.77 1926.01 1932.56 1937.88 -99999.00 -99999.00 -99999.00 -99999.00 -99999.00 -99999.00 -99999.00 -99999.00 -99999.00 -99999.00 -99999.00 -99999.00 -99999.00 -99999.00 -99999.00 -99999.00 -99999.00 -99999.00 -99999.00 -99999.00 -99999.00 -99999.00 -99999.00 -99999.00 -99999.00 -99999.00 -99999.00 -99999.00 -99999.00 -99999.00 -99999.00 -99999.00 -99999.00 -99999.00 -99999.00 -99999.00 -99999.00 -99999.00 -99999.00 -99999.00 -99999.00 -99999.00 -99999.00 -99999.00 -99999.00 -99999.00 -99999.00 -99999.00 -99999.00 -99999.00
2026.80 2024.45 2022.15 2019.90 2017.72 2015.71 2014.08 2012.96 2012.41 2012.32 2012.45 2012.87 2013.89 2015.43 2017.26 2019.50 2022.13 2024.73 2026.20 2025.79 2023.63 2020.46 2016.84 2012.92 2008.79 2004.57 2000.45 1996.58 1992.95 1989.56 1986.37 1983.26 1980.11 1976.94 1973.85 1970.80 1967.65 1964.32 1960.85 1957.38 1954.00 1950.69 1947.34 1943.80 1940.01 1936.06 1932.04 1927.82 1923.09 1917.79 1912.40 1907.28 1902.36 1897.44 1892.46 1887.43 1882.19 1876.26 1869.93 1864.09 1858.95 1854.50 1850.86 1847.92 1845.09 1842.57 1840.82 1839.57 1838.21 1836.62 1834.68 1831.87 1828.14 1823.92 1819.19 1814.69 1810.90 1807.62 1804.19 1800.04 1795.26 1790.77 1787.34 1785.24 1784.43 1784.70 1785.74 1787.17 1788.66 1790.54 1794.05 1799.23 1802.09 1801.18 1798.30 1796.99 1800.03 1806.26 1814.21 1822.03 1829.22 1836.86 1844.78 1852.66 1860.39 1867.78 1875.54 1884.43 1893.91 1901.64 1906.53 1909.07 1910.07 1910.68 1912.17 1915.46 1920.13 1924.82 1929.33 1934.54 1940.28 1945.60 1950.30 1954.80 1959.38 1964.34 1969.82 1975.45 1980.49 1984.81 1988.72 1992.56 1996.86 2001.70 2006.46 2011.60 2017.10 2021.77 2025.64 2029.45 2034.06 2039.55 2044.61 2048.74 2053.07 2057.78 2061.75 2065.14 2069.52 2075.19 2080.78 2084.68 2087.07 2088.97 2091.24 2094.17 2097.62 2101.41 2104.74 2106.47 2106.49 2105.36 2103.17 2100.36 2097.54 2095.04 2092.90 2090.96 2089.11 2087.39 2086.00 2085.24 2085.23 2085.80 2086.65 2087.55 2088.36 2089.05 2089.63 2090.16 2090.70 2091.29 2091.92 2092.57 2093.27 2094.07 2095.04 2096.25 2097.66 2099.20 2100.76 2102.24 2103.50 2104.40 2104.95 2105.24 2105.25 2104.85 2103.95 2102.19 2098.49 2093.33 2087.61 2081.66 2075.83 2070.51 2065.99 2062.41 2059.63 2057.40 2055.31 2053.00 2050.41 2047.63 2044.79 2042.00 2039.40 2037.03 2034.73 2032.36 2029.86 2027.21 2024.42 2021.37 2018.10 2015.14 2012.71 2010.43 2007.93 2004.93 2001.47 1997.53 1992.68 1987.09 1980.62 1972.21 1962.49 1952.81 1944.86 1940.65 1939.85 1941.67 1946.11 1951.41 1954.61 1953.60 1948.18 1941.67 1938.01 1940.25 1949.38 1961.24 1971.19 1979.24 1986.09 1992.21 1997.99 2003.48 2007.88 2009.90 2009.30 2006.88 2003.65 1999.88 1995.76 1991.41 1986.09 1978.52 1968.31 1958.60 1951.65 1946.40 1941.66 1936.89 1932.47 1928.96 1926.09 1922.83 1918.86 1914.66 1910.38 1906.16 1902.28 1898.78 1894.98 1890.41 1885.29 1880.54 1877.76 1878.24 1882.05 1887.96 1894.59 1901.75 1909.43 1916.83 1923.24 1929.05 1935.11 1940.15 -99999.00 -99999.00 -99999.00 -99999.00 -99999.00 -99999.00 -99999.00 -99999.00 -99999.00 -99999.00 -99999.00 -99999.00 -99999.00 -99999.00 -99999.00 -99999.00 -99999.00 -99999.00 -99999.00 -99999.00 -99999.00 -99999.00 -99999.00 -99999.00 -99999.00 -99999.00 -99999.00 -99999.00 -99999.00 -99999.00 -99999.00 -99999.00 -99999.00 -99999.00 -99999.00 -99999.00 -99999.00 -99999.00 -99999.00 -99999.00 -99999.00 -99999.00 -99999.00 -99999.00 -99999.00 -99999.00 -99999.00 -99999.00 -99999.00 -99999.00
2021.89 2019.48 2017.13 2014.84 2012.57 2010.41 2008.51 2007.12 2006.38 2006.20 2006.41 2007.08 2008.25 2009.88 2011.90 2014.32 2017.16 2020.08 2022.06 2022.05 2019.93 2016.68 2012.96 2008.96 2004.78 2000.58 1996.57 1992.85 1989.32 1985.93 1982.63 1979.36 1976.05 1972.79 1969.72 1966.79 1963.77 1960.41 1956.88 1953.38 1950.01 1946.75 1943.47 1940.00 1936.27 1932.31 1928.17 1923.81 1918.99 1913.63 1908.28 1903.24 1898.32 1893.28 1888.00 1882.48 1876.58 1870.02 1863.23 1857.20 1852.07 1847.62 1843.87 1840.58 1837.13 1834.15 1832.46 1831.43 1830.10 1828.00 1825.11 1821.67 1817.99 1814.12 1809.87 1805.80 1802.42 1799.75 1797.24 1794.40 1791.25 1788.37 1786.32 1785.30 1785.28 1786.16 1787.77 1789.71 1791.18 1792.08 1794.65 1802.06 1810.83 1812.83 1809.19 1805.13 1804.82 1809.44 1815.12 1820.87 1827.46 1834.67 1842.07 1849.72 1857.67 1865.84 1874.84 1884.97 1895.25 1903.43 1908.45 1911.03 1912.13 1912.97 1914.99 1919.80 1926.83 1933.10 1937.66 1941.81 1946.19 1950.63 1954.96 1959.21 1963.57 1968.25 1973.39 1978.70 1983.39 1987.45 1991.42 1995.76 2001.07 2007.62 2014.37 2020.51 2025.90 2030.03 2033.05 2035.85 2039.94 2045.70 2051.61 2056.94 2061.62 2065.63 2069.07 2072.18 2075.92 2080.71 2085.63 2089.40 2092.00 2094.11 2096.58 2100.26 2104.71 2109.14 2112.60 2113.80 2112.85 2110.49 2107.08 2103.23 2099.58 2096.63 2094.32 2092.31 2090.47 2088.85 2087.59 2086.86 2086.72 2087.06 2087.71 2088.47 2089.21 2089.87 2090.44 2090.95 2091.46 2092.03 2092.71 2093.51 2094.50 2095.73 2097.21 2098.92 2100.79 2102.68 2104.51 2106.16 2107.54 2108.59 2109.33 2109.85 2110.05 2109.69 2108.48 2106.05 2102.01 2096.90 2091.29 2085.25 2079.11 2073.41 2068.62 2064.89 2062.14 2060.11 2058.25 2056.01 2053.44 2050.75 2048.04 2045.42 2042.97 2040.68 2038.46 2036.30 2034.08 2031.70 2029.11 2026.22 2023.13 2020.34 2018.05 2015.87 2013.33 2009.98 2005.66 2000.23 1993.58 1986.03 1977.77 1968.45 1958.48 1949.00 1942.08 1940.64 1943.63 1948.36 1953.56 1957.95 1960.71 1959.56 1953.41 1945.46 1939.76 1940.68 1950.73 1963.58 1974.21 1982.41 1989.17 1995.28 2001.36 2007.26 2011.81 2013.62 2012.51 2009.47 2005.43 2001.00 1996.79 1992.41 1986.88 1978.98 1968.51 1958.80 1952.16 1947.19 1942.79 1938.66 1934.94 1931.84 1929.01 1925.91 1922.34 1918.39 1914.17 1909.90 1905.80 1901.74 1897.06 1891.41 1885.56 1881.00 1879.13 1880.38 1884.49 1890.57 1897.59 1905.15 1912.97 1920.29 1926.58 1932.29 1938.26 1943.24 -99999.00 -99999.00 -99999.00 -99999.00 -99999.00 -99999.00 -99999.00 -99999.00 -99999.00 -99999.00 -99999.00 -99999.00 -99999.00 -99999.00 -99999.00 -99999.00 -99999.00 -99999.00 -99999.00 -99999.00 -99999.00 -99999.00 -99999.00 -99999.00 -99999.00 -99999.00 -99999.00 -99999.00 -99999.00 -99999.00 -99999.00 -99999.00 -99999.00 -99999.00 -99999.00 -99999.00 -99999.00 -99999.00 -99999.00 -99999.00 -99999.00 -99999.00 -99999.00 -99999.00 -99999.00 -99999.00 -99999.00 -99999.00 -99999.00 -99999.00
2017.57 2015.17 2012.79 2010.43 2008.09 2005.80 2003.68 2002.01 2001.12 2000.84 2001.00 2001.71 2002.90 2004.59 2006.76 2009.44 2012.49 2015.43 2017.44 2017.52 2015.50 2012.31 2008.61 2004.62 2000.49 1996.42 1992.55 1988.93 1985.43 1981.95 1978.42 1974.85 1971.28 1967.88 1964.78 1961.96 1959.08 1955.79 1952.29 1948.84 1945.59 1942.48 1939.35 1936.01 1932.32 1928.25 1923.87 1919.17 1914.10 1908.77 1903.70 1898.96 1894.19 1889.06 1883.41 1877.30 1870.68 1863.59 1856.60 1850.47 1845.25 1840.62 1836.49 1832.59 1828.65 1825.65 1824.40 1823.78 1822.56 1819.95 1816.06 1811.78 1807.82 1804.23 1800.92 1797.93 1795.42 1793.51 1791.87 1790.19 1788.51 1787.17 1786.48 1786.57 1787.32 1788.74 1791.00 1794.10 1796.64 1797.23 1799.12 1807.62 1819.13 1823.42 1822.34 1819.93 1818.77 1820.16 1820.54 1822.10 1827.71 1833.60 1839.45 1846.19 1853.92 1862.53 1872.38 1883.25 1894.00 1902.83 1908.74 1912.07 1913.88 1915.62 1918.77 1925.05 1933.79 1940.94 1945.14 1948.35 1951.71 1955.57 1959.82 1963.98 1967.93 1971.92 1976.31 1981.04 1985.51 1989.62 1993.84 1998.72 2004.94 2012.50 2020.39 2027.24 2032.92 2037.17 2039.90 2042.35 2046.18 2051.80 2057.92 2063.57 2068.32 2072.18 2075.39 2078.12 2081.23 2085.18 2089.37 2093.11 2096.25 2099.06 2102.16 2106.40 2111.27 2115.93 2119.38 2120.14 2118.54 2115.31 2110.95 2106.31 2102.03 2098.67 2096.12 2093.95 2092.04 2090.42 2089.20 2088.45 2088.22 2088.42 2088.91 2089.54 2090.19 2090.80 2091.34 2091.82 2092.31 2092.88 2093.61 2094.54 2095.77 2097.36 2099.29 2101.45 2103.71 2105.93 2108.00 2109.82 2111.31 2112.43 2113.29 2114.06 2114.58 2114.37 2113.06 2110.40 2106.36 2101.39 2095.86 2089.73 2083.23 2077.01 2071.75 2067.65 2064.74 2062.71 2060.97 2058.90 2056.54 2054.06 2051.58 2049.20 2046.94 2044.73 2042.54 2040.44 2038.30 2036.03 2033.57 2030.85 2028.01 2025.35 2022.99 2020.70 2017.97 2013.99 2008.58 2001.73 1992.92 1982.94 1973.14 1963.76 1954.98 1947.70 1943.75 1945.25 1950.45 1956.48 1962.08 1966.02 1967.43 1964.99 1958.43 1950.27 1944.18 1945.03 1955.12 1967.42 1977.67 1985.62 1992.28 1998.55 2004.94 2011.20 2016.02 2017.43 2015.42 2011.62 2007.03 2002.26 1997.71 1992.95 1987.17 1979.53 1970.15 1961.31 1954.55 1949.24 1944.73 1940.79 1937.51 1934.76 1932.04 1929.07 1925.70 1921.91 1917.74 1913.38 1909.01 1904.51 1899.18 1892.61 1885.70 1880.81 1879.89 1882.37 1887.31 1893.93 1901.40 1909.16 1916.69 1923.50 1929.63 1935.58 1941.92 1947.07 -99999.00 -99999.00 -99999.00 -99999.00 -99999.00 -99999.00 -99999.00 -99999.00 -99999.00 -99999.00 -99999.00 -99999.00 -99999.00 -99999.00 -99999.00 -99999.00 -99999.00 -99999.00 -99999.00 -99999.00 -99999.00 -99999.00 -99999.00 -99999.00 -99999.00 -99999.00 -99999.00 -99999.00 -99999.00 -99999.00 -99999.00 -99999.00 -99999.00 -99999.00 -99999.00 -99999.00 -99999.00 -99999.00 -99999.00 -99999.00 -99999.00 -99999.00 -99999.00 -99999.00 -99999.00 -99999.00 -99999.00 -99999.00 -99999.00 -99999.00
2013.79 2011.39 2008.97 2006.57 2004.23 2001.93 1999.78 1998.05 1997.07 1996.69 1996.77 1997.36 1998.41 1999.95 2002.02 2004.76 2007.79 2010.45 2012.05 2011.93 2010.06 2007.09 2003.58 1999.73 1995.73 1991.85 1988.19 1984.69 1981.21 1977.60 1973.78 1969.82 1965.89 1962.23 1959.02 1956.22 1953.47 1950.42 1947.11 1943.79 1940.70 1937.81 1934.89 1931.71 1928.02 1923.78 1919.14 1914.16 1908.91 1903.65 1898.96 1894.65 1890.12 1885.02 1879.13 1872.42 1864.98 1857.32 1850.15 1843.94 1838.62 1833.85 1829.49 1825.36 1821.49 1818.90 1818.17 1817.83 1816.53 1813.51 1808.88 1803.80 1799.69 1796.62 1794.27 1792.37 1790.81 1789.64 1788.74 1787.99 1787.43 1787.31 1787.85 1788.96 1790.33 1791.95 1794.65 1799.35 1804.61 1807.33 1809.89 1815.93 1824.08 1829.01 1830.86 1831.62 1832.47 1833.95 1833.46 1832.37 1834.00 1835.70 1838.45 1843.75 1850.86 1859.21 1869.16 1880.33 1891.64 1901.46 1908.50 1912.98 1916.12 1919.55 1924.67 1931.66 1939.82 1946.64 1950.90 1953.85 1956.84 1960.63 1965.10 1969.18 1972.48 1975.49 1978.89 1982.99 1987.28 1991.52 1996.02 2001.31 2007.89 2015.67 2023.90 2031.42 2037.68 2042.31 2045.40 2048.26 2052.24 2057.61 2063.52 2068.99 2073.54 2077.33 2080.54 2083.15 2085.87 2089.20 2092.88 2096.65 2100.49 2104.32 2108.27 2112.61 2117.07 2121.09 2123.82 2124.24 2122.43 2118.83 2114.14 2109.30 2104.85 2101.20 2098.30 2095.86 2093.77 2092.08 2090.82 2090.04 2089.74 2089.83 2090.19 2090.71 2091.27 2091.82 2092.31 2092.77 2093.24 2093.83 2094.62 2095.67 2097.10 2099.03 2101.39 2103.96 2106.57 2109.06 2111.33 2113.29 2114.86 2115.98 2116.77 2117.67 2118.58 2118.63 2117.48 2114.96 2111.20 2106.49 2101.12 2095.11 2088.58 2081.97 2075.95 2071.20 2067.89 2065.53 2063.68 2061.90 2059.93 2057.72 2055.47 2053.35 2051.27 2049.12 2046.94 2044.77 2042.58 2040.29 2037.82 2035.11 2032.33 2029.57 2026.86 2024.07 2020.72 2015.75 2009.01 2000.65 1990.04 1978.32 1967.81 1959.23 1952.70 1948.87 1948.91 1953.22 1959.52 1965.75 1971.66 1975.63 1975.31 1970.69 1963.61 1956.06 1951.23 1953.28 1962.37 1973.00 1981.97 1989.07 1995.51 2002.00 2008.48 2014.53 2019.13 2020.08 2017.46 2013.22 2008.38 2003.41 1998.50 1993.37 1987.54 1980.48 1972.41 1964.60 1957.85 1952.12 1947.39 1943.57 1940.61 1938.07 1935.42 1932.50 1929.19 1925.40 1921.12 1916.51 1911.84 1907.09 1901.68 1894.83 1886.80 1880.86 1880.79 1884.71 1890.66 1897.89 1905.65 1913.32 1920.36 1926.53 1932.40 1938.62 1945.48 1950.93 -99999.00 -99999.00 -99999.00 -99999.00 -99999.00 -99999.00 -99999.00 -99999.00 -99999.00 -99999.00 -99999.00 -99999.00 -99999.00 -99999.00 -99999.00 -99999.00 -99999.00 -99999.00 -99999.00 -99999.00 -99999.00 -99999.00 -99999.00 -99999.00 -99999.00 -99999.00 -99999.00 -99999.00 -99999.00 -99999.00 -99999.00 -99999.00 -99999.00 -99999.00 -99999.00 -99999.00 -99999.00 -99999.00 -99999.00 -99999.00 -99999.00 -99999.00 -99999.00 -99999.00 -99999.00 -99999.00 -99999.00 -99999.00 -99999.00 -99999.00
2010.34 2007.91 2005.44 2003.06 2000.79 1998.63 1996.67 1995.12 1994.14 1993.69 1993.69 1994.10 1994.92 1996.17 1997.94 2000.39 2003.05 2005.20 2006.28 2005.82 2003.91 2001.14 1997.84 1994.17 1990.40 1986.79 1983.37 1980.05 1976.63 1972.90 1968.75 1964.34 1959.97 1955.97 1952.61 1949.88 1947.35 1944.60 1941.55 1938.39 1935.43 1932.67 1929.91 1926.89 1923.20 1918.77 1914.00 1909.07 1904.01 1899.03 1894.63 1890.53 1886.12 1881.05 1875.07 1867.80 1859.38 1851.00 1843.68 1837.56 1832.36 1827.75 1823.62 1819.99 1817.00 1815.24 1814.77 1814.45 1813.09 1810.03 1805.23 1799.67 1795.39 1792.85 1791.25 1790.10 1789.24 1788.65 1788.35 1788.21 1788.25 1788.83 1790.20 1792.15 1793.97 1795.12 1797.35 1803.93 1813.11 1818.27 1820.63 1823.15 1827.36 1831.97 1836.19 1840.49 1844.14 1846.89 1847.33 1845.56 1843.52 1841.02 1840.58 1844.13 1849.92 1857.18 1866.20 1876.97 1888.78 1899.87 1908.19 1913.95 1918.81 1924.48 1931.41 1938.27 1944.88 1950.83 1955.26 1958.48 1961.77 1965.95 1970.64 1974.56 1977.07 1979.11 1981.72 1985.16 1989.09 1993.29 1997.97 2003.43 2009.95 2017.57 2025.98 2033.94 2040.45 2045.43 2049.12 2052.60 2056.95 2062.42 2068.33 2073.68 2077.88 2081.39 2084.50 2087.16 2089.81 2092.88 2096.42 2100.41 2104.91 2109.57 2114.08 2118.21 2121.87 2124.88 2126.65 2126.59 2124.58 2120.97 2116.50 2111.86 2107.52 2103.76 2100.61 2097.89 2095.58 2093.78 2092.49 2091.69 2091.34 2091.35 2091.61 2092.03 2092.51 2092.98 2093.43 2093.86 2094.35 2094.99 2095.87 2097.08 2098.71 2100.97 2103.72 2106.64 2109.50 2112.16 2114.53 2116.56 2118.16 2119.22 2119.87 2120.69 2121.73 2122.01 2121.14 2119.03 2115.72 2111.35 2106.35 2100.91 2094.99 2088.52 2081.83 2076.32 2072.36 2069.26 2067.10 2065.57 2064.00 2062.03 2059.89 2057.88 2055.83 2053.62 2051.31 2049.03 2046.73 2044.33 2041.69 2038.80 2035.79 2032.55 2029.07 2025.27 2020.63 2014.46 2006.52 1996.75 1984.81 1972.26 1962.13 1955.32 1951.57 1951.17 1954.57 1961.13 1968.52 1975.35 1981.94 1986.07 1984.13 1977.45 1969.20 1961.39 1956.70 1958.87 1967.65 1977.93 1986.13 1992.55 1998.99 2005.86 2012.28 2017.54 2021.26 2021.72 2018.86 2014.45 2009.48 2004.30 1999.11 1993.88 1988.18 1981.71 1974.63 1967.57 1960.99 1955.20 1950.51 1946.93 1944.21 1941.81 1939.28 1936.42 1933.08 1929.11 1924.48 1919.40 1914.33 1909.51 1904.57 1898.43 1890.34 1884.04 1883.87 1888.27 1894.81 1902.38 1910.14 1917.38 1923.67 1929.18 1934.72 1941.10 1948.47 1954.30 -99999.00 -99999.00 -99999.00 -99999.00 -99999.00 -99999.00 -99999.00 -99999.00 -99999.00 -99999.00 -99999.00 -99999.00 -99999.00 -99999.00 -99999.00 -99999.00 -99999.00 -99999.00 -99999.00 -99999.00 -99999.00 -99999.00 -99999.00 -99999.00 -99999.00 -99999.00 -99999.00 -99999.00 -99999.00 -99999.00 -99999.00 -99999.00 -99999.00 -99999.00 -99999.00 -99999.00 -99999.00 -99999.00 -99999.00 -99999.00 -99999.00 -99999.00 -99999.00 -99999.00 -99999.00 -99999.00 -99999.00 -99999.00 -99999.00 -99999.00
2006.95 2004.43 2001.94 1999.61 1997.49 1995.58 1993.95 1992.69 1991.85 1991.41 1991.33 1991.57 1992.12 1993.04 1994.41 1996.24 1998.17 1999.62 2000.17 1999.39 1997.45 1994.83 1991.69 1988.16 1984.61 1981.29 1978.10 1974.94 1971.61 1967.80 1963.31 1958.47 1953.71 1949.38 1945.90 1943.39 1941.18 1938.68 1935.80 1932.74 1929.76 1926.96 1924.22 1921.24 1917.51 1913.03 1908.47 1903.99 1899.45 1894.95 1890.66 1886.43 1881.85 1876.63 1870.58 1862.89 1853.33 1844.36 1837.28 1831.63 1826.87 1822.71 1819.20 1816.46 1814.64 1813.88 1813.92 1813.83 1812.70 1810.27 1806.31 1800.77 1796.09 1793.88 1792.63 1791.85 1791.37 1791.07 1791.20 1791.40 1791.35 1791.83 1793.34 1795.56 1797.78 1798.16 1798.34 1805.66 1818.19 1824.19 1825.84 1827.35 1830.48 1835.52 1842.44 1850.00 1855.21 1857.76 1857.67 1855.54 1852.52 1849.03 1846.91 1847.96 1851.35 1856.45 1863.58 1873.20 1885.20 1897.67 1907.53 1914.45 1920.67 1928.15 1936.41 1943.11 1948.55 1953.79 1958.45 1962.28 1966.09 1970.56 1975.33 1979.12 1981.04 1982.49 1984.57 1987.43 1990.89 1994.88 1999.52 2004.95 2011.37 2018.90 2027.49 2035.90 2042.41 2047.28 2051.32 2055.28 2060.04 2065.89 2072.09 2077.59 2081.62 2084.78 2087.67 2090.35 2093.07 2096.22 2100.00 2104.42 2109.32 2114.32 2118.93 2122.67 2125.55 2127.63 2128.58 2128.04 2125.89 2122.41 2118.23 2113.92 2109.82 2106.09 2102.78 2099.85 2097.39 2095.52 2094.24 2093.45 2093.08 2093.05 2093.23 2093.56 2093.97 2094.39 2094.80 2095.22 2095.72 2096.45 2097.52 2098.98 2100.92 2103.47 2106.47 2109.59 2112.58 2115.27 2117.60 2119.57 2121.09 2122.08 2122.71 2123.40 2124.16 2124.38 2123.68 2121.96 2119.10 2115.18 2110.86 2106.38 2101.63 2096.11 2089.78 2084.00 2078.92 2074.38 2071.61 2070.30 2069.01 2067.09 2064.83 2062.60 2060.33 2057.85 2055.32 2052.88 2050.41 2047.80 2044.95 2041.81 2038.28 2034.04 2029.45 2024.50 2018.41 2010.56 2001.28 1990.81 1977.93 1965.22 1956.92 1952.77 1951.96 1954.47 1960.44 1968.56 1976.95 1984.96 1992.37 1996.46 1993.40 1984.82 1974.43 1964.61 1958.73 1961.49 1971.63 1982.46 1990.16 1996.15 2003.09 2010.73 2017.43 2022.24 2025.01 2024.52 2020.91 2016.05 2010.83 2005.37 2000.00 1994.74 1989.30 1983.35 1976.95 1970.35 1963.96 1958.30 1953.85 1950.61 1948.20 1946.10 1943.84 1941.11 1937.69 1933.43 1928.31 1922.50 1916.69 1911.47 1906.69 1901.33 1894.53 1889.42 1889.12 1893.18 1899.70 1907.25 1914.73 1921.28 1926.75 1931.62 1936.73 1943.08 1950.68 1957.57 1963.12 -99999.00 -99999.00 -99999.00 -99999.00 -99999.00 -99999.00 -99999.00 -99999.00 -99999.00 -99999.00 -99999.00 -99999.00 -99999.00 -99999.00 -99999.00 -99999.00 -99999.00 -99999.00 -99999.00 -99999.00 -99999.00 -99999.00 -99999.00 -99999.00 -99999.00 -99999.00 -99999.00 -99999.00 -99999.00 -99999.00 -99999.00 -99999.00 -99999.00 -99999.00 -99999.00 -99999.00 -99999.00 -99999.00 -99999.00 -99999.00 -99999.00 -99999.00 -99999.00 -99999.00 -99999.00 -99999.00 -99999.00 -99999.00 -99999.00
2003.24 2000.65 1998.21 1996.02 1994.14 1992.58 1991.34 1990.42 1989.81 1989.45 1989.32 1989.40 1989.68 1990.19 1991.00 1992.05 1993.09 1993.72 1993.64 1992.66 1990.90 1988.54 1985.59 1982.18 1978.75 1975.55 1972.42 1969.25 1965.91 1962.02 1957.24 1952.13 1947.26 1942.91 1939.49 1937.23 1935.22 1932.80 1929.87 1926.68 1923.55 1920.64 1917.80 1914.69 1910.91 1906.65 1902.67 1898.91 1894.97 1890.79 1886.43 1881.85 1876.78 1871.05 1864.58 1856.48 1846.43 1837.66 1831.42 1826.55 1822.43 1818.92 1816.17 1814.39 1813.70 1814.06 1814.97 1815.48 1814.78 1813.46 1811.91 1807.96 1802.91 1800.16 1798.77 1798.17 1797.82 1797.43 1797.89 1798.37 1797.57 1797.06 1797.57 1798.27 1800.42 1801.79 1802.74 1809.02 1818.73 1824.01 1826.29 1828.67 1833.06 1840.72 1850.96 1859.85 1864.62 1866.15 1865.39 1863.19 1860.54 1857.62 1854.77 1853.57 1854.30 1856.61 1861.11 1869.12 1881.00 1894.93 1906.37 1914.09 1920.91 1928.75 1936.99 1943.91 1949.61 1954.95 1959.96 1964.61 1969.01 1973.46 1977.81 1981.28 1983.31 1984.87 1986.80 1989.33 1992.44 1996.15 2000.58 2005.90 2012.15 2019.50 2027.92 2036.30 2042.88 2047.82 2052.22 2056.72 2061.93 2068.07 2074.42 2080.00 2084.11 2087.25 2090.09 2092.88 2095.79 2099.18 2103.36 2108.15 2113.25 2118.19 2122.46 2125.79 2128.14 2129.58 2129.96 2129.06 2126.84 2123.50 2119.59 2115.64 2111.83 2108.20 2104.82 2101.77 2099.20 2097.32 2096.08 2095.34 2094.99 2094.92 2095.05 2095.30 2095.65 2096.03 2096.42 2096.82 2097.36 2098.20 2099.52 2101.34 2103.66 2106.47 2109.61 2112.83 2115.82 2118.39 2120.53 2122.29 2123.60 2124.47 2125.05 2125.57 2125.98 2125.96 2125.18 2123.48 2120.81 2117.55 2114.17 2110.75 2107.17 2103.03 2098.23 2093.28 2087.53 2081.34 2077.65 2076.17 2074.73 2072.34 2069.68 2067.04 2064.33 2061.48 2058.69 2056.03 2053.24 2050.32 2047.18 2043.65 2039.23 2033.68 2027.94 2022.22 2014.94 2004.61 1992.70 1980.96 1968.34 1958.89 1954.36 1952.98 1955.02 1960.24 1967.96 1976.53 1984.95 1993.16 2000.26 2003.37 1999.72 1990.51 1979.05 1967.47 1960.94 1965.67 1977.78 1989.22 1995.88 2000.74 2008.06 2016.48 2023.81 2028.90 2031.00 2029.21 2024.49 2018.73 2012.78 2006.83 2001.16 1996.02 1990.99 1985.48 1979.54 1973.26 1967.07 1961.64 1957.50 1954.69 1952.67 1950.97 1949.15 1946.69 1943.19 1938.63 1933.09 1926.56 1919.51 1913.13 1907.69 1902.35 1897.05 1893.74 1894.21 1898.32 1904.72 1912.05 1919.07 1924.87 1929.70 1934.18 1939.07 1945.19 1952.48 1960.04 1963.74 -99999.00 -99999.00 -99999.00 -99999.00 -99999.00 -99999.00 -99999.00 -99999.00 -99999.00 -99999.00 -99999.00 -99999.00 -99999.00 -99999.00 -99999.00 -99999.00 -99999.00 -99999.00 -99999.00 -99999.00 -99999.00 -99999.00 -99999.00 -99999.00 -99999.00 -99999.00 -99999.00 -99999.00 -99999.00 -99999.00 -99999.00 -99999.00 -99999.00 -99999.00 -99999.00 -99999.00 -99999.00 -99999.00 -99999.00 -99999.00 -99999.00 -99999.00 -99999.00 -99999.00 -99999.00 -99999.00 -99999.00 -99999.00 -99999.00
1998.84 1996.31 1994.04 1992.10 1990.56 1989.41 1988.61 1988.09 1987.75 1987.52 1987.38 1987.32 1987.32 1987.40 1987.59 1987.87 1988.06 1987.89 1987.15 1986.01 1984.56 1982.56 1979.85 1976.58 1973.14 1969.76 1966.38 1962.91 1959.23 1955.03 1950.14 1945.15 1940.64 1936.75 1933.69 1931.49 1929.45 1926.83 1923.59 1920.07 1916.73 1913.76 1910.95 1907.89 1904.29 1900.41 1897.04 1893.90 1890.37 1886.28 1881.66 1876.54 1870.77 1864.26 1857.00 1848.73 1839.75 1832.14 1826.75 1822.61 1819.12 1816.25 1814.25 1813.35 1813.69 1815.19 1817.24 1818.65 1818.19 1817.37 1818.74 1817.91 1813.22 1810.00 1809.12 1809.05 1808.57 1807.93 1808.52 1809.34 1808.01 1806.10 1804.49 1801.91 1803.32 1807.21 1810.91 1815.56 1819.41 1822.24 1825.24 1828.93 1835.22 1845.77 1858.20 1866.88 1870.84 1871.70 1870.68 1868.65 1866.30 1863.72 1860.83 1858.73 1857.75 1857.58 1859.28 1865.59 1877.18 1891.71 1904.04 1912.39 1919.36 1926.74 1934.45 1941.72 1948.49 1954.75 1960.49 1965.81 1970.56 1974.74 1978.39 1981.47 1983.92 1985.97 1988.09 1990.59 1993.59 1997.11 2001.31 2006.41 2012.37 2019.26 2027.10 2034.85 2041.46 2046.88 2051.89 2057.15 2062.87 2069.05 2075.30 2080.81 2085.12 2088.56 2091.66 2094.77 2098.09 2101.88 2106.35 2111.31 2116.40 2121.10 2124.97 2127.91 2129.90 2130.95 2130.98 2129.89 2127.68 2124.54 2120.92 2117.29 2113.71 2110.20 2106.84 2103.76 2101.15 2099.27 2098.07 2097.35 2097.02 2096.91 2096.96 2097.14 2097.42 2097.77 2098.15 2098.54 2099.10 2100.10 2101.70 2103.92 2106.63 2109.71 2112.98 2116.20 2119.10 2121.44 2123.28 2124.71 2125.72 2126.35 2126.75 2127.04 2127.15 2126.86 2125.89 2124.11 2121.59 2118.86 2116.22 2113.60 2110.91 2108.00 2104.87 2101.46 2096.41 2089.90 2085.08 2082.37 2079.93 2076.83 2073.85 2070.78 2067.58 2064.34 2061.25 2058.16 2054.87 2051.50 2047.90 2043.71 2038.26 2031.45 2024.69 2018.83 2011.16 1997.77 1982.33 1970.31 1961.29 1957.47 1956.49 1957.22 1961.69 1969.12 1977.27 1984.69 1992.00 1999.39 2005.15 2006.55 2002.11 1993.24 1982.38 1971.80 1967.48 1974.10 1986.48 1997.46 2003.37 2007.38 2014.07 2022.35 2029.96 2035.45 2037.31 2034.35 2028.61 2021.94 2015.19 2008.74 2002.92 1998.12 1993.28 1987.88 1982.20 1976.21 1970.39 1965.42 1961.72 1959.31 1957.61 1956.27 1954.97 1952.87 1949.31 1944.56 1938.89 1932.04 1923.53 1915.46 1908.93 1903.02 1898.37 1896.49 1898.19 1902.90 1909.35 1916.30 1922.71 1927.99 1932.50 1936.89 1941.76 1947.58 1954.31 1961.45 1966.56 -99999.00 -99999.00 -99999.00 -99999.00 -99999.00 -99999.00 -99999.00 -99999.00 -99999.00 -99999.00 -99999.00 -99999.00 -99999.00 -99999.00 -99999.00 -99999.00 -99999.00 -99999.00 -99999.00 -99999.00 -99999.00 -99999.00 -99999.00 -99999.00 -99999.00 -99999.00 -99999.00 -99999.00 -99999.00 -99999.00 -99999.00 -99999.00 -99999.00 -99999.00 -99999.00 -99999.00 -99999.00 -99999.00 -99999.00 -99999.00 -99999.00 -99999.00 -99999.00 -99999.00 -99999.00 -99999.00 -99999.00 -99999.00 -99999.00
1993.49 1991.29 1989.34 1987.75 1986.60 1985.90 1985.58 1985.50 1985.47 1985.42 1985.32 1985.17 1984.93 1984.61 1984.23 1983.85 1983.39 1982.60 1981.38 1980.08 1978.87 1977.11 1974.54 1971.27 1967.63 1963.88 1960.05 1956.07 1951.78 1947.09 1942.13 1937.49 1933.62 1930.41 1927.69 1925.47 1923.28 1920.27 1916.56 1912.71 1909.27 1906.46 1903.92 1901.24 1898.19 1894.89 1891.80 1888.83 1885.41 1881.18 1876.27 1870.72 1864.37 1857.10 1849.22 1841.37 1834.01 1827.85 1823.23 1819.72 1816.81 1814.55 1813.22 1813.05 1814.21 1816.75 1820.02 1822.56 1822.90 1822.23 1824.03 1824.71 1822.15 1820.59 1821.45 1822.25 1821.43 1820.26 1820.50 1821.32 1820.05 1817.79 1815.98 1812.73 1811.78 1815.28 1819.16 1821.93 1822.66 1823.46 1825.73 1829.85 1837.63 1849.74 1862.20 1870.40 1873.99 1874.62 1873.60 1871.77 1869.57 1867.08 1864.47 1862.30 1860.70 1859.38 1859.06 1864.39 1876.05 1889.52 1901.17 1909.66 1916.45 1923.30 1930.87 1938.71 1946.61 1954.03 1960.67 1966.50 1971.34 1975.17 1978.25 1981.03 1983.69 1986.11 1988.49 1991.09 1994.13 1997.73 2001.79 2006.51 2012.20 2018.75 2025.91 2032.97 2039.28 2044.86 2050.51 2056.47 2062.63 2068.94 2075.09 2080.56 2085.10 2088.92 2092.42 2095.97 2099.85 2104.16 2108.91 2113.88 2118.75 2123.18 2126.78 2129.44 2131.16 2131.95 2131.79 2130.64 2128.53 2125.64 2122.35 2118.95 2115.54 2112.15 2108.87 2105.87 2103.33 2101.44 2100.17 2099.43 2099.06 2098.87 2098.82 2098.91 2099.10 2099.37 2099.73 2100.09 2100.72 2101.93 2103.87 2106.53 2109.68 2113.06 2116.47 2119.64 2122.30 2124.31 2125.76 2126.78 2127.38 2127.67 2127.80 2127.83 2127.69 2127.18 2126.08 2124.28 2121.92 2119.44 2117.12 2114.92 2112.77 2110.63 2108.43 2105.85 2101.92 2096.60 2091.37 2087.31 2083.72 2080.33 2077.10 2073.53 2069.81 2066.06 2062.43 2058.78 2055.02 2051.19 2047.06 2042.19 2035.92 2028.42 2021.01 2014.67 2006.36 1990.81 1973.77 1964.02 1960.12 1960.63 1962.57 1965.92 1971.92 1979.06 1985.82 1991.70 1998.01 2004.79 2009.37 2009.15 2003.64 1994.62 1984.31 1975.94 1974.91 1983.05 1994.74 2004.12 2009.74 2014.06 2020.18 2027.91 2035.14 2040.13 2041.35 2037.99 2031.92 2024.78 2017.57 2010.97 2005.42 2000.70 1995.64 1990.24 1984.70 1979.07 1973.84 1969.61 1966.51 1964.41 1962.95 1961.83 1960.82 1958.87 1955.16 1950.29 1944.91 1938.41 1929.17 1919.64 1911.41 1904.03 1899.01 1898.06 1901.16 1906.93 1913.64 1920.13 1925.84 1930.73 1935.15 1939.60 1944.48 1950.05 1956.31 1963.09 1969.16 1974.32 -99999.00 -99999.00 -99999.00 -99999.00 -99999.00 -99999.00 -99999.00 -99999.00 -99999.00 -99999.00 -99999.00 -99999.00 -99999.00 -99999.00 -99999.00 -99999.00 -99999.00 -99999.00 -99999.00 -99999.00 -99999.00 -99999.00 -99999.00 -99999.00 -99999.00 -99999.00 -99999.00 -99999.00 -99999.00 -99999.00 -99999.00 -99999.00 -99999.00 -99999.00 -99999.00 -99999.00 -99999.00 -99999.00 -99999.00 -99999.00 -99999.00 -99999.00 -99999.00 -99999.00 -99999.00 -99999.00 -99999.00 -99999.00
1987.43 1985.78 1984.19 1982.93 1982.16 1981.90 1982.07 1982.47 1982.82 1983.00 1983.02 1982.84 1982.47 1981.89 1981.09 1980.21 1979.29 1978.09 1976.65 1975.27 1974.00 1972.24 1969.58 1966.07 1962.08 1957.89 1953.61 1949.10 1944.23 1939.00 1933.76 1929.27 1926.04 1923.42 1920.77 1918.32 1915.83 1912.56 1908.67 1904.74 1901.43 1898.93 1896.74 1894.58 1892.19 1889.33 1886.17 1882.98 1879.45 1875.11 1870.21 1864.74 1858.31 1850.58 1842.23 1834.95 1829.04 1824.24 1820.49 1817.60 1815.35 1813.75 1813.04 1813.47 1815.22 1818.48 1823.03 1827.39 1830.06 1830.80 1831.11 1830.71 1829.53 1830.16 1833.03 1834.61 1833.40 1831.54 1831.09 1831.18 1829.97 1828.42 1827.51 1825.28 1822.82 1823.88 1826.04 1827.23 1827.35 1827.49 1828.59 1832.08 1841.01 1854.34 1865.61 1872.37 1875.25 1875.63 1874.73 1873.24 1871.34 1869.10 1866.72 1864.55 1862.82 1861.56 1861.69 1867.28 1878.14 1889.33 1899.13 1906.76 1912.84 1919.28 1927.17 1935.92 1944.69 1952.93 1960.43 1966.81 1971.76 1975.34 1978.05 1980.54 1983.10 1985.65 1988.17 1990.81 1993.79 1997.25 2001.16 2005.79 2011.47 2017.94 2024.66 2031.06 2036.85 2042.54 2048.88 2055.34 2061.78 2068.22 2074.33 2079.79 2084.53 2088.67 2092.51 2096.46 2100.88 2105.84 2111.05 2116.08 2120.74 2124.88 2128.21 2130.62 2132.13 2132.75 2132.49 2131.34 2129.35 2126.71 2123.69 2120.53 2117.28 2114.00 2110.85 2107.99 2105.55 2103.66 2102.31 2101.45 2100.96 2100.63 2100.44 2100.40 2100.45 2100.59 2100.86 2101.26 2102.05 2103.55 2105.93 2109.14 2112.85 2116.62 2120.19 2123.23 2125.50 2127.00 2127.91 2128.39 2128.50 2128.38 2128.19 2127.96 2127.60 2126.94 2125.77 2123.99 2121.70 2119.23 2116.89 2114.75 2112.79 2110.93 2109.00 2106.60 2103.22 2099.03 2094.54 2090.28 2086.37 2082.76 2079.09 2075.08 2070.80 2066.45 2062.16 2057.97 2053.82 2049.57 2044.92 2039.49 2032.92 2025.62 2018.47 2010.58 1998.13 1981.95 1969.16 1962.25 1960.75 1963.81 1969.27 1975.43 1981.82 1987.66 1992.95 1997.91 2003.85 2010.39 2014.16 2012.59 2006.15 1996.70 1986.45 1979.38 1980.89 1990.78 2001.49 2009.10 2014.45 2019.46 2025.67 2032.84 2039.25 2043.15 2043.53 2040.24 2034.28 2026.97 2019.56 2013.01 2007.55 2002.61 1997.65 1992.66 1987.45 1982.21 1977.62 1974.14 1971.56 1969.74 1968.45 1967.37 1966.09 1963.73 1959.67 1954.57 1949.15 1942.56 1933.79 1924.35 1914.76 1905.34 1899.32 1899.07 1903.79 1910.90 1917.91 1923.86 1928.87 1933.34 1937.70 1942.28 1947.27 1952.72 1958.70 1965.24 1972.00 1975.38 -99999.00 -99999.00 -99999.00 -99999.00 -99999.00 -99999.00 -99999.00 -99999.00 -99999.00 -99999.00 -99999.00 -99999.00 -99999.00 -99999.00 -99999.00 -99999.00 -99999.00 -99999.00 -99999.00 -99999.00 -99999.00 -99999.00 -99999.00 -99999.00 -99999.00 -99999.00 -99999.00 -99999.00 -99999.00 -99999.00 -99999.00 -99999.00 -99999.00 -99999.00 -99999.00 -99999.00 -99999.00 -99999.00 -99999.00 -99999.00 -99999.00 -99999.00 -99999.00 -99999.00 -99999.00 -99999.00 -99999.00 -99999.00
1981.44 1980.18 1978.78 1977.72 1977.25 1977.34 1977.90 1978.74 1979.54 1980.11 1980.39 1980.29 1979.93 1979.29 1978.31 1977.07 1975.66 1974.06 1972.39 1970.89 1969.51 1967.68 1964.76 1960.85 1956.42 1951.86 1947.27 1942.43 1937.10 1931.39 1925.75 1921.09 1918.02 1915.51 1912.74 1910.00 1907.18 1903.92 1900.32 1896.76 1893.75 1891.37 1889.29 1887.41 1885.54 1882.90 1879.35 1875.63 1871.83 1867.76 1863.42 1858.71 1853.02 1845.32 1836.50 1829.47 1824.79 1821.24 1818.40 1816.29 1814.80 1813.93 1813.85 1814.86 1817.18 1821.03 1826.54 1832.61 1837.77 1840.13 1839.52 1837.36 1835.41 1836.69 1840.83 1843.44 1842.99 1841.48 1841.02 1840.69 1839.18 1837.65 1836.68 1835.10 1832.65 1831.79 1832.54 1832.95 1833.07 1833.34 1833.58 1835.62 1844.79 1858.95 1868.85 1873.84 1875.70 1875.77 1875.13 1874.20 1872.85 1871.01 1868.88 1866.83 1865.23 1864.56 1866.10 1871.74 1880.53 1889.19 1897.30 1903.83 1908.77 1914.78 1923.15 1932.58 1941.84 1950.85 1959.48 1966.71 1971.96 1975.44 1977.84 1979.97 1982.32 1984.81 1987.34 1989.91 1992.67 1995.79 1999.51 2004.19 2009.99 2016.58 2023.27 2029.60 2035.58 2041.63 2048.20 2054.75 2061.18 2067.53 2073.53 2078.98 2083.81 2088.11 2092.16 2096.41 2101.33 2107.05 2112.94 2118.23 2122.71 2126.49 2129.46 2131.60 2132.92 2133.42 2133.10 2131.98 2130.11 2127.66 2124.85 2121.88 2118.79 2115.66 2112.69 2110.00 2107.69 2105.81 2104.39 2103.37 2102.67 2102.16 2101.80 2101.59 2101.49 2101.51 2101.72 2102.20 2103.21 2105.06 2107.96 2111.88 2116.36 2120.71 2124.43 2127.16 2128.78 2129.51 2129.67 2129.48 2129.03 2128.46 2127.92 2127.44 2126.89 2126.09 2124.85 2123.02 2120.64 2118.02 2115.47 2113.19 2111.18 2109.35 2107.49 2105.27 2102.37 2098.88 2095.16 2091.27 2087.41 2083.69 2079.81 2075.35 2070.52 2065.62 2060.81 2056.17 2051.66 2047.06 2042.06 2036.33 2029.73 2022.89 2016.58 2009.04 1994.84 1979.73 1972.17 1967.29 1965.01 1968.07 1974.90 1981.59 1987.42 1993.20 1998.72 2004.00 2009.86 2015.78 2018.80 2016.10 2008.78 1999.14 1989.78 1984.38 1987.49 1997.33 2006.32 2012.50 2017.89 2023.87 2030.53 2037.16 2042.61 2045.56 2045.33 2042.00 2036.13 2028.79 2021.33 2014.96 2009.70 2004.86 2000.25 1995.72 1990.83 1986.09 1982.09 1979.05 1976.75 1975.08 1973.82 1972.59 1970.81 1967.75 1963.06 1957.52 1951.40 1943.92 1935.70 1927.38 1917.51 1906.16 1899.57 1900.56 1907.01 1915.26 1922.23 1927.46 1931.78 1935.86 1940.23 1945.05 1950.23 1955.76 1961.69 1968.05 1974.59 1979.01 -99999.00 -99999.00 -99999.00 -99999.00 -99999.00 -99999.00 -99999.00 -99999.00 -99999.00 -99999.00 -99999.00 -99999.00 -99999.00 -99999.00 -99999.00 -99999.00 -99999.00 -99999.00 -99999.00 -99999.00 -99999.00 -99999.00 -99999.00 -99999.00 -99999.00 -99999.00 -99999.00 -99999.00 -99999.00 -99999.00 -99999.00 -99999.00 -99999.00 -99999.00 -99999.00 -99999.00 -99999.00 -99999.00 -99999.00 -99999.00 -99999.00 -99999.00 -99999.00 -99999.00 -99999.00 -99999.00 -99999.00 -99999.00
1976.49 1974.99 1973.39 1972.30 1971.97 1972.22 1972.93 1974.06 1975.38 1976.57 1977.28 1977.39 1977.09 1976.50 1975.50 1973.97 1972.00 1969.84 1967.76 1965.99 1964.54 1962.75 1959.64 1955.41 1950.66 1945.89 1941.28 1936.38 1930.81 1924.74 1918.88 1913.97 1910.32 1907.24 1904.19 1901.25 1898.26 1895.12 1891.96 1888.99 1886.32 1883.85 1881.43 1879.27 1877.39 1874.85 1871.19 1867.09 1863.14 1859.48 1855.84 1852.14 1847.92 1840.61 1830.78 1823.96 1820.82 1818.64 1816.90 1815.81 1815.28 1815.27 1815.90 1817.51 1820.45 1824.70 1830.35 1836.96 1843.32 1847.52 1847.91 1844.77 1840.40 1840.48 1845.06 1848.89 1850.55 1850.99 1851.53 1851.44 1849.88 1847.81 1845.95 1843.99 1841.25 1839.84 1840.22 1840.32 1840.39 1840.60 1839.98 1840.46 1848.62 1861.26 1870.57 1875.09 1876.41 1876.33 1876.16 1876.05 1875.39 1874.03 1872.25 1870.51 1869.36 1869.32 1871.38 1876.09 1882.22 1888.50 1895.05 1900.72 1904.17 1909.46 1918.56 1928.02 1937.12 1947.18 1957.52 1966.06 1971.87 1975.39 1977.55 1979.34 1981.39 1983.77 1986.23 1988.67 1991.19 1994.04 1997.53 2002.03 2007.78 2014.45 2021.44 2028.41 2035.35 2042.07 2048.50 2054.76 2060.91 2066.94 2072.77 2078.21 2083.01 2087.33 2091.60 2096.17 2101.56 2107.92 2114.45 2120.14 2124.46 2127.84 2130.48 2132.38 2133.54 2133.96 2133.62 2132.53 2130.77 2128.46 2125.78 2122.92 2119.98 2117.06 2114.33 2111.86 2109.71 2107.88 2106.40 2105.24 2104.34 2103.64 2103.11 2102.75 2102.55 2102.54 2102.78 2103.41 2104.67 2106.84 2110.23 2114.97 2120.44 2125.51 2129.29 2131.39 2132.03 2131.73 2130.96 2129.99 2128.91 2127.88 2127.02 2126.28 2125.51 2124.49 2123.08 2121.09 2118.45 2115.59 2112.87 2110.46 2108.36 2106.51 2104.74 2102.81 2100.63 2097.85 2094.38 2090.62 2086.80 2083.02 2078.97 2074.23 2069.05 2063.79 2058.65 2053.70 2048.90 2044.13 2039.08 2033.43 2026.98 2020.32 2014.50 2008.43 1998.75 1989.56 1987.08 1984.40 1977.79 1976.47 1978.68 1983.06 1988.91 1995.62 2002.38 2008.73 2014.69 2019.66 2021.65 2018.59 2011.33 2002.42 1994.83 1991.12 1993.95 2001.60 2008.99 2014.85 2020.78 2027.90 2035.13 2041.40 2045.99 2048.07 2047.22 2043.62 2037.80 2030.71 2023.57 2017.52 2012.54 2008.03 2003.72 1999.25 1994.62 1990.60 1987.07 1984.14 1981.88 1980.24 1978.94 1977.52 1975.34 1971.76 1966.70 1960.72 1953.30 1944.23 1935.64 1927.54 1917.25 1905.21 1899.77 1903.19 1911.05 1919.52 1926.06 1930.72 1934.59 1938.41 1942.88 1947.98 1953.41 1959.07 1965.04 1971.32 1977.69 1982.44 -99999.00 -99999.00 -99999.00 -99999.00 -99999.00 -99999.00 -99999.00 -99999.00 -99999.00 -99999.00 -99999.00 -99999.00 -99999.00 -99999.00 -99999.00 -99999.00 -99999.00 -99999.00 -99999.00 -99999.00 -99999.00 -99999.00 -99999.00 -99999.00 -99999.00 -99999.00 -99999.00 -99999.00 -99999.00 -99999.00 -99999.00 -99999.00 -99999.00 -99999.00 -99999.00 -99999.00 -99999.00 -99999.00 -99999.00 -99999.00 -99999.00 -99999.00 -99999.00 -99999.00 -99999.00 -99999.00 -99999.00 -99999.00
1973.40 1970.93 1968.51 1966.98 1966.58 1966.65 1967.16 1968.37 1970.17 1972.08 1973.31 1973.54 1973.22 1972.75 1971.90 1970.15 1967.56 1964.76 1962.16 1959.94 1958.17 1956.38 1953.56 1949.66 1945.02 1940.29 1935.88 1931.09 1925.46 1919.21 1913.15 1907.84 1903.40 1899.58 1896.11 1892.92 1889.79 1886.72 1883.98 1881.50 1879.04 1876.38 1873.42 1870.47 1868.03 1865.69 1862.44 1858.43 1854.50 1851.04 1847.73 1844.44 1841.08 1834.14 1823.99 1818.34 1816.88 1816.31 1816.02 1816.22 1816.86 1817.90 1819.43 1821.77 1825.15 1829.16 1833.72 1839.67 1847.42 1853.86 1856.28 1853.58 1848.06 1846.42 1849.54 1853.59 1856.92 1859.30 1861.14 1861.82 1860.76 1858.59 1855.88 1853.14 1850.65 1849.37 1849.58 1849.88 1849.54 1848.49 1846.77 1846.69 1852.89 1863.20 1872.39 1877.54 1879.13 1879.29 1879.67 1880.31 1880.12 1879.13 1877.84 1876.76 1876.51 1877.22 1879.47 1883.34 1887.30 1890.66 1894.87 1899.55 1900.77 1905.12 1914.49 1922.62 1931.02 1942.21 1954.44 1964.62 1971.26 1974.90 1976.93 1978.53 1980.40 1982.70 1985.07 1987.36 1989.69 1992.31 1995.51 1999.66 2005.16 2011.79 2019.13 2026.91 2034.80 2042.20 2048.74 2054.72 2060.47 2066.12 2071.65 2076.91 2081.71 2086.26 2090.89 2095.90 2101.69 2108.30 2115.06 2120.94 2125.33 2128.58 2131.05 2132.83 2133.93 2134.32 2133.99 2132.96 2131.30 2129.11 2126.55 2123.79 2120.99 2118.29 2115.81 2113.59 2111.63 2109.92 2108.44 2107.20 2106.16 2105.31 2104.67 2104.26 2104.09 2104.18 2104.60 2105.50 2107.09 2109.56 2113.26 2118.75 2125.23 2130.92 2134.48 2135.61 2134.95 2133.44 2131.67 2129.89 2128.18 2126.71 2125.53 2124.51 2123.43 2122.03 2120.14 2117.81 2115.00 2112.08 2109.35 2106.93 2104.82 2103.02 2101.44 2099.78 2097.95 2095.58 2092.43 2088.75 2084.80 2080.85 2076.67 2071.91 2066.67 2061.27 2055.97 2050.82 2045.85 2041.10 2036.32 2031.12 2025.09 2018.39 2011.88 2005.91 2000.14 1997.09 2001.16 2004.19 1998.59 1989.17 1981.05 1981.99 1988.33 1996.08 2004.07 2011.81 2018.27 2022.55 2023.70 2020.73 2014.34 2006.80 2000.50 1997.05 1998.70 2004.57 2011.19 2017.52 2024.45 2032.37 2039.94 2045.94 2049.80 2051.01 2049.41 2045.37 2039.56 2032.91 2026.42 2020.79 2016.07 2011.81 2007.52 2002.90 1998.86 1995.56 1992.21 1989.16 1986.78 1985.11 1983.76 1982.16 1979.62 1975.53 1969.91 1963.26 1954.91 1945.04 1935.65 1926.47 1915.87 1905.67 1902.49 1907.43 1915.64 1923.33 1929.14 1933.55 1937.38 1941.30 1945.91 1951.13 1956.66 1962.39 1968.38 1974.67 1980.99 1986.94 1990.93 -99999.00 -99999.00 -99999.00 -99999.00 -99999.00 -99999.00 -99999.00 -99999.00 -99999.00 -99999.00 -99999.00 -99999.00 -99999.00 -99999.00 -99999.00 -99999.00 -99999.00 -99999.00 -99999.00 -99999.00 -99999.00 -99999.00 -99999.00 -99999.00 -99999.00 -99999.00 -99999.00 -99999.00 -99999.00 -99999.00 -99999.00 -99999.00 -99999.00 -99999.00 -99999.00 -99999.00 -99999.00 -99999.00 -99999.00 -99999.00 -99999.00 -99999.00 -99999.00 -99999.00 -99999.00 -99999.00 -99999.00
1972.47 1968.66 1964.82 1962.19 1961.35 1960.71 1960.56 1961.53 1963.60 1966.21 1967.93 1967.92 1967.34 1967.09 1966.72 1964.88 1961.66 1958.36 1955.39 1952.69 1950.36 1948.52 1946.56 1943.69 1939.83 1935.44 1930.96 1926.13 1920.51 1914.18 1907.92 1902.17 1897.09 1892.69 1888.88 1885.48 1882.27 1879.28 1876.80 1874.55 1872.14 1869.31 1865.97 1862.42 1859.58 1857.36 1854.28 1850.36 1846.44 1842.99 1839.89 1836.80 1833.23 1827.03 1819.25 1815.25 1814.51 1815.00 1816.05 1817.60 1819.53 1821.74 1824.33 1827.54 1831.31 1835.00 1838.33 1843.38 1852.41 1859.99 1863.07 1861.57 1857.50 1854.82 1854.87 1857.75 1861.95 1865.77 1868.62 1870.00 1869.83 1868.51 1866.49 1864.24 1862.04 1860.26 1859.76 1859.80 1858.76 1856.46 1853.84 1852.94 1856.82 1865.28 1874.94 1882.15 1885.64 1886.75 1887.37 1887.89 1887.53 1886.64 1886.03 1886.28 1887.48 1889.48 1892.69 1896.41 1899.27 1901.07 1904.27 1907.38 1906.77 1910.24 1915.63 1919.09 1925.87 1937.79 1951.19 1962.65 1969.82 1973.45 1975.59 1977.46 1979.53 1981.80 1984.01 1986.19 1988.39 1990.82 1993.77 1997.57 2002.62 2008.93 2016.39 2024.83 2033.65 2041.76 2048.39 2054.05 2059.43 2064.74 2070.02 2075.14 2080.07 2084.97 2089.96 2095.32 2101.31 2107.94 2114.66 2120.61 2125.16 2128.54 2131.08 2132.89 2134.03 2134.46 2134.18 2133.22 2131.67 2129.62 2127.20 2124.58 2121.93 2119.44 2117.22 2115.26 2113.54 2111.99 2110.59 2109.33 2108.22 2107.31 2106.64 2106.31 2106.36 2106.76 2107.54 2108.90 2111.11 2114.12 2118.04 2123.91 2130.81 2136.43 2139.21 2139.02 2137.02 2134.41 2131.74 2129.20 2126.90 2125.03 2123.55 2122.22 2120.69 2118.69 2116.12 2113.39 2110.65 2107.90 2105.36 2103.14 2101.20 2099.56 2098.21 2096.80 2095.11 2092.87 2089.88 2086.20 2082.07 2077.90 2073.64 2068.95 2063.85 2058.53 2053.21 2047.91 2042.79 2038.16 2033.83 2029.30 2023.89 2016.94 2009.17 2002.72 1999.04 1998.86 2004.78 2010.75 2007.34 1993.08 1980.63 1981.60 1988.63 1996.69 2005.01 2013.62 2021.00 2025.34 2026.13 2023.20 2017.49 2010.96 2005.47 2002.33 2003.36 2008.17 2014.30 2021.03 2028.71 2036.99 2044.65 2050.53 2053.91 2054.33 2051.93 2047.38 2041.53 2035.28 2029.40 2024.31 2019.99 2016.09 2012.07 2007.76 2004.00 2000.73 1997.31 1993.98 1991.38 1989.67 1988.25 1986.33 1983.19 1978.22 1971.52 1963.77 1955.46 1946.51 1936.69 1926.26 1916.29 1909.04 1907.85 1912.72 1920.00 1926.51 1931.65 1935.98 1940.07 1944.38 1949.15 1954.34 1959.81 1965.48 1971.46 1977.77 1984.13 1990.23 1994.32 -99999.00 -99999.00 -99999.00 -99999.00 -99999.00 -99999.00 -99999.00 -99999.00 -99999.00 -99999.00 -99999.00 -99999.00 -99999.00 -99999.00 -99999.00 -99999.00 -99999.00 -99999.00 -99999.00 -99999.00 -99999.00 -99999.00 -99999.00 -99999.00 -99999.00 -99999.00 -99999.00 -99999.00 -99999.00 -99999.00 -99999.00 -99999.00 -99999.00 -99999.00 -99999.00 -99999.00 -99999.00 -99999.00 -99999.00 -99999.00 -99999.00 -99999.00 -99999.00 -99999.00 -99999.00 -99999.00 -99999.00
1973.54 1968.45 1963.21 1958.97 1956.41 1954.43 1953.33 1953.64 1955.40 1958.25 1960.19 1959.68 1958.74 1958.73 1958.86 1957.07 1953.63 1950.48 1947.66 1944.80 1942.12 1940.43 1939.35 1937.52 1934.53 1930.42 1925.50 1920.29 1914.70 1908.60 1902.41 1896.48 1891.04 1886.29 1882.32 1878.89 1875.79 1873.00 1870.56 1868.28 1865.83 1862.95 1859.58 1856.13 1853.31 1850.71 1847.11 1842.82 1838.78 1835.50 1832.90 1830.50 1827.63 1823.51 1818.65 1815.29 1814.38 1815.20 1817.16 1819.91 1823.12 1826.49 1829.95 1833.87 1838.12 1841.98 1845.59 1850.73 1858.34 1864.75 1867.32 1866.62 1864.01 1861.06 1859.17 1860.76 1865.74 1870.98 1874.70 1876.67 1877.36 1877.32 1876.96 1876.15 1873.96 1871.22 1869.16 1867.89 1866.15 1863.30 1859.87 1857.42 1859.24 1867.18 1877.85 1887.67 1894.54 1897.20 1898.15 1898.18 1897.20 1896.10 1896.10 1897.75 1900.34 1903.66 1908.56 1913.89 1916.43 1918.34 1922.15 1923.27 1922.66 1924.10 1923.49 1922.37 1926.38 1936.08 1948.08 1959.45 1966.43 1970.19 1973.15 1975.93 1978.61 1980.94 1983.09 1985.28 1987.44 1989.75 1992.50 1995.92 2000.34 2006.00 2013.23 2022.04 2031.70 2040.51 2046.99 2052.32 2057.50 2062.71 2067.98 2073.23 2078.43 2083.58 2088.79 2094.26 2100.25 2106.79 2113.43 2119.40 2124.16 2127.80 2130.58 2132.60 2133.89 2134.44 2134.25 2133.38 2131.94 2130.05 2127.80 2125.36 2122.91 2120.63 2118.63 2116.93 2115.48 2114.15 2112.89 2111.70 2110.62 2109.73 2109.16 2109.10 2109.63 2110.65 2112.05 2114.06 2117.26 2121.33 2125.74 2131.14 2136.86 2141.01 2142.29 2140.81 2137.90 2134.59 2131.24 2128.05 2125.22 2122.99 2121.29 2119.61 2117.53 2114.88 2111.78 2108.84 2106.25 2103.74 2101.48 2099.65 2098.06 2096.64 2095.39 2094.07 2092.42 2090.21 2087.25 2083.53 2079.29 2074.89 2070.43 2065.77 2060.89 2055.83 2050.64 2045.33 2040.13 2035.53 2031.49 2027.55 2022.80 2015.94 2007.66 2001.29 1999.71 2001.89 2007.74 2012.49 2008.00 1993.74 1983.67 1985.84 1991.83 1998.09 2005.42 2014.42 2022.95 2028.28 2029.27 2026.27 2020.76 2014.81 2010.20 2008.05 2009.17 2013.15 2018.60 2025.19 2032.98 2041.23 2048.86 2054.86 2057.98 2057.71 2054.56 2049.57 2043.67 2037.71 2032.39 2027.83 2023.97 2020.55 2017.02 2012.93 2009.05 2005.68 2002.25 1998.70 1995.91 1994.14 1992.47 1989.91 1985.71 1979.55 1971.53 1962.93 1954.88 1946.88 1936.79 1925.27 1916.47 1911.91 1912.33 1917.05 1923.16 1928.72 1933.59 1938.06 1942.58 1947.33 1952.30 1957.47 1962.77 1968.30 1974.22 1980.61 1987.16 1993.39 1997.81 -99999.00 -99999.00 -99999.00 -99999.00 -99999.00 -99999.00 -99999.00 -99999.00 -99999.00 -99999.00 -99999.00 -99999.00 -99999.00 -99999.00 -99999.00 -99999.00 -99999.00 -99999.00 -99999.00 -99999.00 -99999.00 -99999.00 -99999.00 -99999.00 -99999.00 -99999.00 -99999.00 -99999.00 -99999.00 -99999.00 -99999.00 -99999.00 -99999.00 -99999.00 -99999.00 -99999.00 -99999.00 -99999.00 -99999.00 -99999.00 -99999.00 -99999.00 -99999.00 -99999.00 -99999.00 -99999.00 -99999.00
1976.18 1970.03 1963.55 1957.59 1952.61 1948.66 1946.33 1945.57 1946.09 1948.04 1949.52 1948.88 1947.84 1948.06 1948.26 1946.61 1943.78 1941.59 1939.39 1936.75 1934.28 1932.84 1932.06 1930.58 1927.87 1923.68 1918.10 1912.56 1907.33 1901.97 1896.29 1890.55 1885.05 1880.18 1876.17 1872.80 1869.85 1867.22 1864.75 1862.36 1859.89 1857.04 1853.65 1850.20 1847.49 1844.62 1840.20 1835.40 1831.37 1828.59 1826.84 1825.48 1823.86 1821.71 1818.88 1816.29 1815.46 1816.54 1819.15 1822.92 1827.39 1831.82 1835.78 1839.90 1844.41 1848.72 1853.04 1857.92 1863.28 1867.87 1870.05 1869.69 1867.61 1864.94 1863.23 1864.70 1869.89 1876.00 1880.27 1882.62 1883.93 1884.74 1885.28 1885.12 1883.23 1880.07 1876.72 1874.40 1872.18 1868.80 1864.40 1860.43 1861.16 1870.39 1882.34 1893.36 1902.38 1907.55 1909.61 1909.42 1908.02 1906.80 1907.01 1908.94 1911.88 1915.69 1920.92 1926.50 1929.65 1932.00 1934.79 1935.98 1936.04 1935.76 1933.77 1931.66 1932.55 1936.86 1943.58 1951.74 1958.92 1964.70 1969.70 1974.02 1977.59 1980.21 1982.55 1984.86 1986.99 1989.21 1991.78 1994.79 1998.41 2003.14 2010.02 2018.79 2028.46 2037.36 2044.05 2049.53 2054.84 2060.23 2065.71 2071.24 2076.75 2082.13 2087.41 2092.84 2098.68 2105.09 2111.62 2117.58 2122.56 2126.57 2129.72 2132.07 2133.62 2134.36 2134.30 2133.54 2132.23 2130.50 2128.44 2126.20 2123.97 2121.89 2120.08 2118.63 2117.47 2116.42 2115.37 2114.35 2113.44 2112.73 2112.42 2112.84 2114.18 2116.20 2118.58 2121.52 2125.72 2130.66 2135.08 2139.10 2142.64 2144.55 2144.17 2141.70 2138.16 2134.36 2130.52 2126.81 2123.47 2120.91 2119.04 2117.05 2114.42 2111.21 2107.92 2104.96 2102.40 2100.16 2098.30 2096.85 2095.54 2094.25 2093.00 2091.67 2090.00 2087.76 2084.77 2080.97 2076.56 2071.91 2067.20 2062.52 2057.85 2053.14 2048.28 2043.14 2037.91 2033.12 2029.08 2025.56 2021.53 2015.67 2008.81 2004.09 2004.03 2007.64 2013.01 2016.74 2012.70 1999.93 1992.79 1994.97 1997.49 1999.42 2005.38 2015.59 2025.74 2032.25 2033.39 2030.02 2024.32 2018.66 2014.95 2013.63 2015.02 2018.57 2023.30 2029.42 2036.97 2045.09 2052.55 2058.48 2061.40 2060.63 2057.02 2051.87 2046.10 2040.45 2035.49 2031.30 2027.74 2024.54 2021.16 2017.17 2013.62 2010.59 2007.49 2004.15 2001.28 1999.08 1996.70 1992.95 1986.86 1978.88 1969.55 1960.44 1952.32 1943.95 1933.25 1922.09 1915.57 1913.43 1914.80 1919.09 1924.57 1930.00 1935.14 1940.05 1945.03 1950.13 1955.25 1960.37 1965.53 1970.94 1976.82 1983.38 1990.27 1996.74 2001.18 -99999.00 -99999.00 -99999.00 -99999.00 -99999.00 -99999.00 -99999.00 -99999.00 -99999.00 -99999.00 -99999.00 -99999.00 -99999.00 -99999.00 -99999.00 -99999.00 -99999.00 -99999.00 -99999.00 -99999.00 -99999.00 -99999.00 -99999.00 -99999.00 -99999.00 -99999.00 -99999.00 -99999.00 -99999.00 -99999.00 -99999.00 -99999.00 -99999.00 -99999.00 -99999.00 -99999.00 -99999.00 -99999.00 -99999.00 -99999.00 -99999.00 -99999.00 -99999.00 -99999.00 -99999.00 -99999.00 -99999.00
1979.73 1972.92 1965.43 1958.03 1951.12 1944.99 1941.06 1939.07 1937.96 1938.29 1938.77 1938.07 1937.14 1937.35 1937.34 1935.94 1934.01 1932.63 1930.67 1928.02 1925.75 1924.48 1923.75 1921.94 1918.36 1913.43 1907.79 1902.76 1898.56 1894.39 1889.60 1884.37 1879.13 1874.32 1870.23 1866.77 1863.83 1861.24 1858.71 1856.22 1853.78 1850.99 1847.27 1842.90 1839.40 1836.43 1832.26 1827.93 1824.46 1822.52 1821.85 1821.50 1820.83 1819.75 1818.24 1816.95 1816.95 1818.58 1821.74 1826.27 1831.88 1837.36 1841.62 1845.64 1850.14 1854.83 1859.45 1863.81 1867.75 1870.96 1872.65 1872.43 1870.73 1868.71 1867.92 1869.75 1874.57 1880.68 1885.34 1888.10 1889.75 1890.76 1891.23 1890.86 1889.29 1886.52 1883.22 1880.55 1878.04 1874.03 1868.68 1864.61 1866.71 1876.80 1888.24 1899.01 1908.76 1916.03 1919.59 1919.86 1918.76 1917.87 1918.15 1919.48 1921.55 1924.45 1928.41 1933.01 1937.16 1940.91 1943.77 1945.33 1945.91 1945.65 1944.36 1942.42 1940.59 1939.09 1939.05 1942.39 1950.21 1959.00 1966.45 1972.46 1977.15 1980.47 1982.91 1985.05 1987.05 1989.21 1991.74 1994.59 1997.55 2001.48 2008.43 2016.80 2025.71 2034.17 2040.80 2046.49 2052.14 2057.80 2063.53 2069.33 2075.11 2080.65 2085.89 2091.19 2096.94 2103.24 2109.63 2115.54 2120.70 2125.07 2128.66 2131.44 2133.34 2134.34 2134.46 2133.82 2132.63 2131.06 2129.17 2127.14 2125.12 2123.25 2121.65 2120.42 2119.51 2118.74 2117.95 2117.21 2116.64 2116.31 2116.48 2117.59 2120.02 2123.29 2126.86 2130.81 2135.46 2140.29 2143.93 2146.30 2147.72 2147.71 2145.91 2142.58 2138.47 2134.22 2130.02 2125.98 2122.29 2119.40 2117.28 2114.91 2111.56 2107.64 2104.30 2101.48 2099.03 2097.17 2095.83 2094.74 2093.58 2092.27 2090.96 2089.59 2087.85 2085.51 2082.41 2078.46 2073.83 2068.89 2063.94 2059.21 2054.72 2050.36 2045.94 2041.09 2035.73 2030.61 2026.42 2023.36 2020.49 2016.45 2012.08 2009.56 2010.27 2014.06 2019.07 2022.29 2019.41 2008.25 2001.74 2003.07 2003.45 2003.44 2008.63 2019.28 2030.56 2037.51 2038.09 2034.02 2028.17 2022.84 2019.57 2018.46 2019.79 2023.03 2027.47 2033.37 2040.92 2049.18 2056.49 2061.97 2064.53 2063.42 2059.57 2054.48 2048.99 2043.66 2038.93 2034.94 2031.43 2028.06 2024.48 2020.92 2018.16 2015.78 2013.34 2010.67 2007.79 2004.60 2000.94 1995.25 1986.37 1976.20 1965.90 1956.52 1948.20 1938.76 1927.60 1919.22 1915.64 1914.66 1916.05 1919.71 1924.91 1930.66 1936.40 1941.94 1947.35 1952.70 1957.90 1962.94 1968.00 1973.39 1979.38 1986.12 1993.26 1999.94 2004.35 -99999.00 -99999.00 -99999.00 -99999.00 -99999.00 -99999.00 -99999.00 -99999.00 -99999.00 -99999.00 -99999.00 -99999.00 -99999.00 -99999.00 -99999.00 -99999.00 -99999.00 -99999.00 -99999.00 -99999.00 -99999.00 -99999.00 -99999.00 -99999.00 -99999.00 -99999.00 -99999.00 -99999.00 -99999.00 -99999.00 -99999.00 -99999.00 -99999.00 -99999.00 -99999.00 -99999.00 -99999.00 -99999.00 -99999.00 -99999.00 -99999.00 -99999.00 -99999.00 -99999.00 -99999.00 -99999.00 -99999.00
1983.91 1976.96 1969.13 1961.02 1953.00 1945.44 1939.60 1935.74 1932.96 1931.35 1930.38 1929.24 1928.27 1927.97 1927.27 1925.67 1924.06 1922.85 1920.51 1917.41 1915.02 1913.76 1913.23 1911.40 1906.71 1900.76 1895.59 1891.63 1889.06 1886.41 1882.61 1877.95 1873.08 1868.41 1864.15 1860.41 1857.24 1854.52 1851.92 1849.40 1846.99 1844.24 1840.06 1834.15 1828.79 1825.86 1823.78 1821.37 1819.22 1818.27 1818.36 1818.61 1818.47 1817.98 1817.52 1817.72 1819.03 1821.48 1825.01 1829.78 1835.92 1842.25 1847.10 1851.26 1855.79 1860.65 1865.12 1868.85 1872.00 1874.64 1876.26 1876.37 1875.12 1873.72 1873.69 1875.53 1879.70 1885.37 1890.29 1893.44 1895.20 1896.10 1896.18 1895.42 1894.15 1892.29 1889.71 1886.91 1883.78 1879.08 1873.37 1870.04 1873.07 1882.31 1892.94 1903.49 1913.38 1921.51 1926.44 1928.29 1928.60 1928.75 1929.24 1929.62 1930.10 1931.35 1933.80 1938.04 1943.65 1948.98 1952.39 1953.70 1954.26 1954.55 1954.36 1952.97 1949.10 1943.20 1938.42 1938.96 1946.41 1956.26 1964.89 1971.91 1977.41 1981.23 1983.71 1985.62 1987.44 1989.58 1992.29 1995.56 1999.15 2003.51 2010.43 2018.44 2026.19 2033.52 2039.23 2044.59 2050.36 2056.06 2061.82 2067.76 2073.64 2079.15 2084.20 2089.30 2095.02 2101.31 2107.61 2113.45 2118.76 2123.50 2127.58 2130.87 2133.21 2134.51 2134.81 2134.28 2133.20 2131.76 2130.03 2128.19 2126.37 2124.71 2123.31 2122.24 2121.48 2120.93 2120.41 2120.04 2119.97 2120.25 2121.23 2123.35 2126.93 2131.33 2135.81 2140.27 2144.75 2148.73 2151.31 2152.36 2152.24 2150.78 2147.86 2143.75 2139.09 2134.50 2130.12 2125.98 2122.20 2119.06 2116.38 2113.30 2108.81 2103.77 2100.43 2097.92 2095.74 2094.42 2093.72 2093.04 2092.05 2090.69 2089.28 2087.82 2085.92 2083.36 2080.03 2075.88 2071.05 2065.89 2060.73 2055.90 2051.50 2047.38 2043.32 2038.79 2033.46 2028.15 2023.80 2021.28 2019.97 2018.14 2016.28 2015.62 2016.76 2019.90 2024.20 2026.49 2023.55 2015.55 2009.90 2009.29 2009.29 2009.97 2015.21 2025.59 2036.71 2042.62 2042.11 2037.56 2031.81 2026.79 2023.54 2022.38 2023.47 2026.51 2031.20 2037.58 2045.68 2054.47 2062.03 2067.12 2068.87 2067.10 2062.91 2057.76 2052.44 2047.41 2042.95 2039.11 2035.54 2031.95 2028.44 2025.46 2023.16 2021.18 2019.26 2017.10 2013.97 2009.11 2002.93 1994.72 1984.00 1972.72 1961.94 1952.41 1944.21 1935.25 1925.24 1919.77 1917.74 1916.28 1916.95 1920.04 1925.01 1931.00 1937.32 1943.43 1949.25 1954.87 1960.15 1965.08 1970.04 1975.46 1981.59 1988.42 1995.55 2002.24 2007.84 2011.28 -99999.00 -99999.00 -99999.00 -99999.00 -99999.00 -99999.00 -99999.00 -99999.00 -99999.00 -99999.00 -99999.00 -99999.00 -99999.00 -99999.00 -99999.00 -99999.00 -99999.00 -99999.00 -99999.00 -99999.00 -99999.00 -99999.00 -99999.00 -99999.00 -99999.00 -99999.00 -99999.00 -99999.00 -99999.00 -99999.00 -99999.00 -99999.00 -99999.00 -99999.00 -99999.00 -99999.00 -99999.00 -99999.00 -99999.00 -99999.00 -99999.00 -99999.00 -99999.00 -99999.00 -99999.00 -99999.00
1988.81 1982.05 1974.36 1966.26 1958.10 1950.11 1942.65 1936.38 1931.32 1927.24 1924.38 1922.05 1920.01 1918.73 1917.26 1915.03 1912.45 1910.32 1907.56 1904.12 1901.31 1899.95 1900.28 1899.80 1895.54 1889.26 1884.01 1880.95 1879.99 1878.63 1875.52 1871.25 1866.68 1862.13 1857.63 1853.40 1849.83 1846.97 1844.32 1841.80 1839.41 1836.57 1832.25 1826.20 1820.54 1818.22 1817.95 1817.46 1816.83 1816.67 1817.05 1817.53 1817.74 1817.74 1818.14 1819.71 1822.44 1825.89 1829.61 1834.24 1840.38 1847.18 1852.85 1857.41 1862.06 1866.95 1871.09 1874.19 1876.84 1879.52 1881.59 1882.50 1882.22 1881.62 1881.92 1883.23 1886.44 1891.41 1896.19 1899.39 1901.09 1901.78 1901.53 1900.38 1899.25 1898.08 1895.94 1892.99 1889.13 1883.85 1877.91 1874.28 1875.96 1883.87 1895.16 1906.29 1916.13 1924.73 1931.22 1935.00 1937.11 1938.58 1939.46 1939.07 1938.17 1938.22 1939.95 1944.39 1951.14 1957.25 1960.62 1961.53 1961.98 1962.65 1963.11 1962.09 1957.47 1949.21 1941.23 1940.32 1948.09 1957.33 1965.33 1972.36 1978.16 1982.06 1984.42 1986.16 1987.88 1990.03 1992.95 1996.78 2001.43 2006.99 2014.13 2021.90 2028.92 2035.34 2040.48 2045.09 2050.31 2055.55 2061.01 2066.87 2072.63 2077.85 2082.42 2087.04 2092.71 2099.21 2105.52 2111.30 2116.79 2121.96 2126.64 2130.53 2133.37 2134.98 2135.44 2134.99 2133.98 2132.63 2131.03 2129.35 2127.70 2126.22 2124.97 2124.01 2123.33 2122.89 2122.62 2122.64 2123.10 2124.15 2126.13 2129.41 2134.01 2139.28 2144.34 2148.90 2152.86 2155.95 2157.48 2157.40 2156.29 2153.87 2150.17 2145.47 2140.37 2135.46 2130.97 2126.88 2123.17 2119.80 2116.42 2112.28 2106.56 2100.71 2097.18 2094.58 2092.54 2091.73 2091.70 2091.38 2090.56 2089.29 2087.87 2086.28 2084.15 2081.26 2077.61 2073.24 2068.28 2062.96 2057.62 2052.66 2048.26 2044.29 2040.49 2036.35 2031.62 2026.70 2022.41 2020.45 2021.01 2021.39 2021.44 2021.86 2023.13 2025.67 2029.06 2030.87 2028.67 2022.70 2017.31 2015.81 2015.33 2016.21 2021.82 2031.75 2041.73 2046.55 2045.37 2040.52 2034.74 2029.87 2026.74 2025.66 2026.66 2029.75 2035.00 2042.43 2051.50 2060.94 2068.94 2073.77 2074.50 2071.74 2067.01 2061.70 2056.49 2051.76 2047.67 2044.06 2040.46 2036.61 2033.05 2030.39 2028.23 2026.21 2024.23 2022.02 2018.22 2011.10 2001.79 1991.36 1980.06 1968.78 1957.98 1948.47 1941.25 1935.25 1928.81 1924.09 1920.63 1917.83 1917.62 1920.27 1925.04 1931.13 1937.80 1944.37 1950.59 1956.45 1961.80 1966.68 1971.57 1976.97 1983.19 1990.07 1997.10 2003.71 2009.64 2012.43 -99999.00 -99999.00 -99999.00 -99999.00 -99999.00 -99999.00 -99999.00 -99999.00 -99999.00 -99999.00 -99999.00 -99999.00 -99999.00 -99999.00 -99999.00 -99999.00 -99999.00 -99999.00 -99999.00 -99999.00 -99999.00 -99999.00 -99999.00 -99999.00 -99999.00 -99999.00 -99999.00 -99999.00 -99999.00 -99999.00 -99999.00 -99999.00 -99999.00 -99999.00 -99999.00 -99999.00 -99999.00 -99999.00 -99999.00 -99999.00 -99999.00 -99999.00 -99999.00 -99999.00 -99999.00 -99999.00
1994.03 1987.68 1980.43 1972.78 1965.12 1957.40 1949.12 1940.84 1933.22 1926.02 1920.22 1915.95 1912.04 1908.96 1906.95 1904.58 1900.69 1897.04 1893.59 1889.47 1885.54 1883.77 1884.79 1886.23 1882.55 1876.72 1873.25 1872.21 1872.26 1871.33 1868.46 1864.21 1859.76 1855.34 1850.55 1845.60 1841.41 1838.41 1835.99 1833.82 1831.75 1829.22 1825.70 1821.35 1817.70 1816.39 1816.70 1817.18 1817.52 1817.94 1818.54 1819.24 1819.79 1820.33 1821.52 1824.10 1827.83 1832.40 1836.43 1841.17 1847.61 1854.25 1860.08 1864.99 1869.58 1874.08 1877.83 1880.57 1883.22 1886.24 1888.93 1890.86 1892.13 1892.85 1892.74 1892.81 1894.54 1898.56 1903.10 1906.27 1907.89 1908.40 1908.09 1906.86 1905.31 1903.75 1901.59 1898.68 1894.64 1889.27 1883.30 1879.00 1879.06 1885.81 1897.25 1908.67 1918.90 1928.06 1935.62 1940.89 1944.42 1946.78 1947.88 1947.43 1946.20 1945.84 1947.68 1952.43 1958.88 1964.45 1967.55 1968.63 1969.16 1969.79 1970.07 1968.54 1963.58 1954.71 1946.16 1946.63 1954.61 1960.41 1966.73 1973.34 1978.94 1982.57 1984.78 1986.49 1988.22 1990.37 1993.34 1997.39 2002.72 2009.35 2017.01 2024.63 2031.49 2037.54 2042.71 2047.26 2051.91 2056.62 2061.57 2067.04 2072.40 2077.06 2080.71 2084.42 2090.04 2096.76 2103.16 2109.04 2114.84 2120.56 2125.93 2130.58 2134.00 2135.90 2136.42 2135.97 2134.98 2133.68 2132.19 2130.63 2129.12 2127.78 2126.64 2125.76 2125.13 2124.76 2124.68 2125.02 2125.95 2127.70 2130.56 2134.78 2140.22 2146.15 2151.68 2156.17 2159.48 2161.68 2162.38 2161.63 2159.91 2156.93 2152.82 2147.81 2142.35 2137.12 2132.56 2128.58 2124.99 2121.51 2117.65 2112.76 2106.77 2101.11 2096.84 2092.99 2090.10 2089.26 2089.42 2089.11 2088.35 2087.39 2086.27 2084.72 2082.36 2079.13 2075.17 2070.65 2065.62 2060.11 2054.55 2049.48 2045.17 2041.49 2038.16 2034.79 2031.18 2027.59 2024.66 2023.88 2025.56 2027.14 2027.96 2028.40 2029.32 2031.51 2034.55 2036.66 2035.87 2030.97 2024.66 2021.12 2019.31 2021.05 2028.05 2037.75 2046.48 2050.46 2048.65 2043.18 2037.03 2032.25 2029.45 2028.66 2029.85 2033.17 2039.04 2047.53 2057.50 2067.55 2075.86 2080.38 2080.25 2076.55 2071.40 2066.20 2061.19 2056.76 2053.04 2049.79 2046.44 2042.29 2038.25 2035.43 2032.77 2029.99 2027.15 2023.86 2018.76 2010.47 1999.79 1988.11 1976.42 1965.36 1954.76 1945.48 1939.90 1938.04 1935.08 1929.87 1923.80 1919.02 1918.01 1920.43 1925.03 1931.19 1938.10 1945.00 1951.52 1957.53 1962.93 1967.84 1972.69 1978.04 1984.32 1991.27 1998.26 2004.78 2010.74 2013.58 -99999.00 -99999.00 -99999.00 -99999.00 -99999.00 -99999.00 -99999.00 -99999.00 -99999.00 -99999.00 -99999.00 -99999.00 -99999.00 -99999.00 -99999.00 -99999.00 -99999.00 -99999.00 -99999.00 -99999.00 -99999.00 -99999.00 -99999.00 -99999.00 -99999.00 -99999.00 -99999.00 -99999.00 -99999.00 -99999.00 -99999.00 -99999.00 -99999.00 -99999.00 -99999.00 -99999.00 -99999.00 -99999.00 -99999.00 -99999.00 -99999.00 -99999.00 -99999.00 -99999.00 -99999.00 -99999.00
1998.88 1993.21 1986.53 1979.48 1972.42 1965.18 1956.88 1947.79 1938.71 1929.16 1919.92 1912.91 1906.62 1901.09 1897.94 1895.34 1891.07 1886.28 1881.68 1876.90 1872.21 1868.86 1867.40 1867.34 1864.15 1861.19 1862.41 1864.67 1865.58 1864.56 1861.56 1856.89 1851.94 1847.62 1842.75 1837.10 1832.27 1829.28 1827.64 1826.41 1825.14 1823.56 1821.62 1819.62 1818.37 1818.48 1819.32 1820.28 1821.27 1822.25 1823.22 1824.18 1825.12 1826.36 1828.44 1831.55 1835.39 1840.38 1845.44 1850.83 1857.21 1863.05 1868.42 1873.28 1877.43 1881.21 1884.67 1887.79 1891.27 1894.94 1898.04 1900.46 1902.39 1903.68 1903.45 1902.75 1903.17 1906.11 1910.37 1913.66 1915.27 1915.68 1915.63 1914.30 1911.79 1909.22 1906.68 1903.86 1900.33 1895.89 1890.77 1886.25 1885.26 1890.19 1899.91 1910.81 1921.35 1931.13 1939.63 1946.17 1950.83 1953.77 1955.13 1955.02 1953.99 1953.51 1955.28 1959.96 1965.70 1970.41 1973.28 1974.58 1975.18 1975.58 1975.49 1973.11 1966.74 1958.16 1953.20 1956.78 1962.64 1965.16 1969.37 1974.61 1979.23 1982.46 1984.75 1986.67 1988.54 1990.72 1993.57 1997.50 2003.12 2010.43 2018.56 2026.44 2033.58 2039.75 2044.98 2049.71 2054.32 2058.89 2063.44 2068.26 2072.97 2076.88 2079.43 2082.41 2087.95 2094.42 2100.77 2106.99 2113.18 2119.38 2125.57 2131.17 2135.27 2137.35 2137.76 2137.23 2136.22 2134.95 2133.51 2132.04 2130.63 2129.39 2128.35 2127.52 2126.94 2126.62 2126.67 2127.24 2128.54 2130.81 2134.29 2139.23 2145.33 2151.68 2157.41 2161.68 2164.36 2165.82 2166.00 2165.00 2162.96 2159.85 2155.73 2150.69 2145.03 2139.53 2134.90 2130.96 2127.43 2124.00 2120.10 2115.14 2109.40 2104.18 2099.66 2094.45 2089.86 2087.97 2087.15 2086.26 2085.37 2084.77 2084.18 2082.84 2080.31 2076.75 2072.57 2068.08 2063.08 2057.35 2051.51 2046.42 2042.45 2039.38 2036.84 2034.54 2032.44 2030.87 2030.46 2031.67 2033.52 2034.91 2035.57 2035.34 2035.51 2037.44 2040.61 2043.19 2043.17 2038.85 2031.36 2024.65 2021.52 2024.98 2034.03 2044.63 2052.83 2055.51 2052.39 2045.83 2039.01 2034.29 2032.03 2031.86 2033.52 2037.29 2043.78 2052.76 2062.92 2073.06 2081.45 2085.74 2085.30 2081.19 2076.14 2071.46 2066.76 2062.48 2058.95 2056.12 2053.41 2049.16 2044.05 2039.92 2035.94 2031.87 2027.68 2022.77 2016.23 2007.73 1997.28 1985.22 1973.50 1962.95 1953.09 1944.81 1940.56 1940.71 1940.16 1935.34 1927.45 1920.78 1918.66 1920.43 1925.04 1931.54 1938.71 1945.74 1952.36 1958.44 1963.88 1968.86 1973.77 1979.13 1985.41 1992.32 1999.18 2005.59 2011.53 2014.39 -99999.00 -99999.00 -99999.00 -99999.00 -99999.00 -99999.00 -99999.00 -99999.00 -99999.00 -99999.00 -99999.00 -99999.00 -99999.00 -99999.00 -99999.00 -99999.00 -99999.00 -99999.00 -99999.00 -99999.00 -99999.00 -99999.00 -99999.00 -99999.00 -99999.00 -99999.00 -99999.00 -99999.00 -99999.00 -99999.00 -99999.00 -99999.00 -99999.00 -99999.00 -99999.00 -99999.00 -99999.00 -99999.00 -99999.00 -99999.00 -99999.00 -99999.00 -99999.00 -99999.00 -99999.00 -99999.00
2002.90 1998.01 1991.98 1985.57 1978.97 1971.93 1964.03 1955.54 1946.84 1937.16 1926.12 1915.99 1906.04 1897.50 1892.74 1889.10 1884.17 1878.48 1873.13 1868.40 1863.80 1858.81 1853.79 1849.58 1846.86 1848.23 1853.13 1857.64 1858.93 1857.32 1854.04 1848.50 1842.01 1837.66 1833.65 1828.57 1823.94 1821.55 1821.07 1820.95 1820.68 1820.32 1820.18 1820.43 1821.25 1822.69 1824.32 1825.94 1827.67 1829.40 1830.95 1832.23 1833.48 1835.34 1838.20 1841.78 1845.73 1850.19 1855.31 1860.91 1866.68 1871.75 1876.41 1880.70 1884.26 1887.60 1891.29 1895.42 1900.40 1905.25 1908.55 1910.41 1911.55 1912.31 1912.59 1912.08 1911.35 1913.08 1917.21 1920.72 1922.69 1923.35 1923.39 1921.75 1918.38 1914.93 1911.76 1908.82 1905.94 1902.73 1898.75 1894.36 1892.35 1894.86 1902.20 1912.29 1922.95 1933.18 1942.57 1950.50 1956.45 1960.06 1961.70 1961.88 1961.12 1960.70 1962.26 1966.45 1971.51 1975.62 1978.16 1979.45 1980.05 1980.29 1980.10 1977.34 1970.04 1961.39 1957.22 1961.25 1967.68 1971.01 1973.60 1976.55 1979.40 1982.23 1984.84 1987.07 1989.18 1991.45 1994.20 1997.97 2003.53 2010.84 2019.04 2027.36 2035.14 2041.74 2047.09 2051.84 2056.45 2060.99 2065.39 2069.84 2074.17 2077.79 2080.24 2083.09 2087.86 2093.63 2099.72 2106.12 2112.57 2119.11 2126.03 2132.47 2137.20 2139.33 2139.45 2138.76 2137.72 2136.45 2135.02 2133.58 2132.24 2131.07 2130.10 2129.34 2128.80 2128.53 2128.65 2129.37 2130.94 2133.62 2137.61 2143.08 2149.57 2155.97 2161.37 2165.21 2167.49 2168.52 2168.46 2167.40 2165.42 2162.55 2158.77 2154.00 2148.45 2142.85 2137.94 2133.79 2130.21 2126.86 2123.26 2118.99 2113.99 2109.15 2104.53 2098.85 2093.24 2089.30 2086.37 2084.05 2082.37 2081.69 2081.38 2080.13 2077.55 2073.85 2069.56 2065.21 2060.42 2054.58 2048.55 2043.59 2040.30 2038.14 2036.53 2035.40 2034.86 2035.23 2036.99 2039.82 2041.90 2042.83 2043.08 2042.40 2042.20 2044.01 2047.18 2049.74 2049.09 2043.80 2035.51 2028.42 2025.72 2029.49 2038.95 2050.57 2059.02 2060.63 2056.21 2048.62 2041.11 2036.31 2034.74 2035.61 2038.12 2042.50 2049.31 2057.99 2067.50 2077.13 2085.71 2090.62 2090.58 2086.68 2082.01 2077.67 2072.94 2068.64 2065.20 2062.50 2060.03 2055.12 2048.06 2041.90 2036.67 2031.64 2026.37 2020.15 2012.37 2003.14 1993.00 1981.59 1970.23 1960.52 1952.37 1946.08 1942.96 1942.89 1942.74 1938.90 1931.63 1924.77 1921.04 1921.23 1925.94 1932.80 1939.97 1946.80 1953.24 1959.26 1964.76 1969.91 1975.04 1980.55 1986.72 1993.36 1999.97 2006.23 2012.12 2015.75 -99999.00 -99999.00 -99999.00 -99999.00 -99999.00 -99999.00 -99999.00 -99999.00 -99999.00 -99999.00 -99999.00 -99999.00 -99999.00 -99999.00 -99999.00 -99999.00 -99999.00 -99999.00 -99999.00 -99999.00 -99999.00 -99999.00 -99999.00 -99999.00 -99999.00 -99999.00 -99999.00 -99999.00 -99999.00 -99999.00 -99999.00 -99999.00 -99999.00 -99999.00 -99999.00 -99999.00 -99999.00 -99999.00 -99999.00 -99999.00 -99999.00 -99999.00 -99999.00 -99999.00 -99999.00 -99999.00
2006.00 2001.70 1996.54 1990.98 1984.90 1978.11 1970.71 1963.19 1955.59 1946.95 1936.36 1924.55 1910.73 1899.64 1894.79 1889.07 1881.14 1874.11 1869.06 1864.53 1860.05 1855.02 1848.94 1842.62 1839.29 1841.52 1846.84 1851.41 1851.87 1847.88 1843.36 1837.16 1829.50 1826.26 1824.60 1821.86 1818.95 1817.65 1817.94 1818.60 1819.24 1820.07 1821.61 1823.76 1826.20 1828.72 1831.15 1833.59 1836.17 1838.77 1841.03 1842.74 1844.36 1846.64 1849.86 1853.63 1857.59 1861.30 1865.35 1870.13 1875.14 1879.63 1883.47 1886.78 1889.81 1893.36 1897.98 1903.64 1910.22 1916.01 1919.21 1920.17 1920.28 1920.40 1920.96 1920.55 1918.28 1917.98 1922.05 1926.65 1929.66 1931.04 1931.00 1929.25 1925.83 1921.81 1917.77 1914.39 1911.71 1908.75 1905.07 1901.03 1898.30 1898.39 1903.94 1913.56 1924.01 1934.25 1944.43 1953.91 1961.40 1965.89 1967.70 1967.86 1967.38 1967.37 1968.91 1972.37 1976.63 1980.12 1982.23 1983.41 1984.00 1984.21 1983.79 1981.01 1974.19 1965.53 1960.95 1966.33 1973.85 1977.32 1978.73 1979.92 1981.35 1983.44 1985.85 1988.16 1990.45 1992.90 1995.64 1999.25 2004.55 2011.39 2019.30 2027.87 2036.12 2043.01 2048.46 2053.18 2057.72 2062.23 2066.72 2071.21 2075.54 2079.36 2082.36 2085.45 2089.67 2094.87 2100.74 2107.15 2113.69 2120.43 2127.60 2134.29 2139.21 2141.37 2141.43 2140.66 2139.56 2138.21 2136.74 2135.27 2133.94 2132.82 2131.92 2131.23 2130.74 2130.50 2130.65 2131.44 2133.19 2136.26 2140.85 2146.77 2153.28 2159.29 2164.03 2167.29 2169.21 2170.02 2169.88 2168.91 2167.20 2164.76 2161.54 2157.29 2152.04 2146.43 2141.20 2136.71 2132.96 2129.62 2126.38 2123.11 2119.51 2115.35 2110.25 2104.36 2098.73 2093.38 2088.13 2083.73 2080.36 2078.70 2077.65 2076.01 2073.72 2070.29 2066.00 2061.84 2057.36 2051.92 2046.16 2041.52 2039.18 2037.91 2037.00 2036.86 2037.73 2039.68 2042.80 2046.32 2048.78 2049.89 2050.04 2049.56 2049.60 2051.18 2053.86 2056.13 2054.61 2047.67 2039.06 2032.85 2030.93 2034.72 2043.76 2055.27 2063.44 2064.62 2059.62 2051.33 2043.10 2038.11 2037.43 2039.67 2043.45 2048.65 2055.41 2063.51 2072.45 2081.73 2090.48 2096.00 2096.33 2092.58 2088.47 2084.31 2079.30 2074.79 2071.16 2067.51 2063.39 2056.86 2048.18 2040.55 2034.90 2029.73 2024.00 2017.12 2008.80 1999.23 1989.11 1978.39 1967.64 1958.69 1952.42 1948.07 1945.83 1945.26 1944.46 1941.38 1936.03 1930.39 1926.32 1925.55 1929.18 1935.33 1941.87 1948.07 1954.09 1959.95 1965.54 1970.92 1976.30 1981.93 1987.95 1994.29 2000.65 2006.78 2012.63 2016.90 -99999.00 -99999.00 -99999.00 -99999.00 -99999.00 -99999.00 -99999.00 -99999.00 -99999.00 -99999.00 -99999.00 -99999.00 -99999.00 -99999.00 -99999.00 -99999.00 -99999.00 -99999.00 -99999.00 -99999.00 -99999.00 -99999.00 -99999.00 -99999.00 -99999.00 -99999.00 -99999.00 -99999.00 -99999.00 -99999.00 -99999.00 -99999.00 -99999.00 -99999.00 -99999.00 -99999.00 -99999.00 -99999.00 -99999.00 -99999.00 -99999.00 -99999.00 -99999.00 -99999.00 -99999.00 -99999.00
2008.78 2005.09 2000.84 1996.15 1990.72 1984.27 1977.21 1970.48 1963.92 1956.57 1947.58 1936.66 1923.83 1913.92 1907.49 1897.74 1885.46 1876.91 1872.35 1867.12 1862.11 1857.83 1852.33 1845.60 1840.58 1839.90 1843.06 1846.35 1845.09 1835.93 1827.88 1823.53 1819.14 1818.67 1819.29 1818.75 1817.86 1817.76 1818.51 1819.73 1821.25 1823.26 1826.16 1829.79 1833.59 1837.02 1840.01 1843.03 1846.34 1849.68 1852.59 1854.75 1856.75 1859.30 1862.41 1865.64 1868.73 1871.66 1874.96 1879.00 1883.38 1887.24 1890.28 1892.68 1895.15 1899.01 1904.76 1911.75 1919.06 1924.97 1928.22 1929.24 1929.10 1928.94 1929.25 1928.80 1926.29 1924.47 1927.24 1932.27 1936.07 1937.97 1938.17 1936.90 1934.09 1930.16 1925.83 1921.93 1918.45 1914.55 1910.28 1906.15 1903.07 1902.35 1906.87 1915.39 1925.04 1935.00 1945.95 1957.01 1966.06 1971.44 1973.18 1973.08 1972.80 1973.14 1974.60 1977.32 1980.69 1983.54 1985.37 1986.44 1986.95 1986.93 1986.08 1983.54 1978.35 1971.70 1970.47 1977.27 1982.54 1984.25 1984.50 1984.60 1985.11 1986.32 1988.06 1990.09 1992.44 1995.19 1998.08 2001.41 2006.30 2012.60 2020.03 2028.45 2036.76 2043.61 2048.93 2053.58 2058.12 2062.74 2067.48 2072.22 2076.75 2080.86 2084.50 2088.14 2092.42 2097.50 2103.35 2109.80 2116.39 2123.03 2129.88 2136.19 2140.81 2143.06 2143.45 2142.84 2141.70 2140.24 2138.65 2137.10 2135.73 2134.63 2133.80 2133.20 2132.78 2132.58 2132.74 2133.53 2135.35 2138.72 2143.87 2150.15 2156.52 2161.91 2165.85 2168.45 2169.95 2170.58 2170.44 2169.62 2168.17 2166.13 2163.44 2159.82 2154.97 2149.48 2144.15 2139.43 2135.42 2131.78 2128.53 2125.81 2123.40 2120.65 2116.32 2109.99 2104.12 2098.82 2092.43 2086.01 2080.72 2077.30 2074.26 2071.51 2069.33 2066.20 2062.24 2058.71 2054.91 2050.32 2045.40 2041.53 2039.79 2038.66 2037.81 2038.20 2040.33 2043.92 2048.29 2052.29 2055.15 2056.77 2057.29 2057.16 2057.32 2058.56 2060.31 2061.58 2059.55 2052.63 2044.33 2037.91 2035.83 2040.21 2049.79 2060.79 2068.11 2068.59 2062.97 2053.97 2044.91 2039.56 2039.80 2043.40 2048.61 2054.80 2061.57 2069.43 2078.66 2088.37 2096.75 2101.65 2101.37 2097.85 2094.90 2091.38 2086.18 2080.96 2075.98 2070.12 2063.42 2055.19 2045.89 2037.91 2032.24 2027.11 2021.18 2014.05 2005.96 1996.89 1987.14 1977.22 1967.70 1959.77 1954.27 1950.77 1948.84 1947.86 1946.68 1944.27 1940.59 1936.57 1933.15 1931.72 1933.57 1938.11 1943.59 1949.13 1954.82 1960.56 1966.24 1971.79 1977.32 1982.96 1988.80 1994.87 2001.04 2007.17 2013.18 2017.59 -99999.00 -99999.00 -99999.00 -99999.00 -99999.00 -99999.00 -99999.00 -99999.00 -99999.00 -99999.00 -99999.00 -99999.00 -99999.00 -99999.00 -99999.00 -99999.00 -99999.00 -99999.00 -99999.00 -99999.00 -99999.00 -99999.00 -99999.00 -99999.00 -99999.00 -99999.00 -99999.00 -99999.00 -99999.00 -99999.00 -99999.00 -99999.00 -99999.00 -99999.00 -99999.00 -99999.00 -99999.00 -99999.00 -99999.00 -99999.00 -99999.00 -99999.00 -99999.00 -99999.00 -99999.00 -99999.00
2011.87 2008.71 2005.21 2001.32 1996.69 1990.83 1984.10 1977.76 1971.85 1965.74 1958.94 1951.14 1942.04 1933.41 1924.75 1912.27 1898.71 1890.86 1884.71 1876.97 1870.89 1866.21 1860.72 1853.21 1845.19 1839.90 1839.82 1840.74 1837.39 1825.89 1816.91 1815.67 1816.22 1817.81 1818.99 1819.35 1819.66 1820.50 1821.91 1823.85 1826.35 1829.47 1833.49 1838.45 1843.56 1847.77 1850.96 1854.14 1857.88 1861.49 1864.58 1867.04 1869.39 1872.08 1874.90 1877.26 1879.21 1881.41 1884.31 1887.94 1891.83 1895.07 1897.57 1899.52 1901.70 1905.67 1912.01 1919.44 1926.40 1931.89 1935.64 1937.35 1937.42 1937.12 1937.28 1937.37 1935.96 1933.47 1934.01 1937.84 1941.40 1943.42 1944.06 1943.51 1941.64 1938.69 1935.33 1931.31 1926.27 1920.84 1915.51 1910.82 1907.77 1907.87 1911.98 1918.66 1926.94 1936.58 1947.99 1960.26 1970.78 1976.91 1978.18 1977.64 1977.49 1978.02 1979.24 1981.28 1983.82 1986.11 1987.75 1988.71 1989.03 1988.59 1987.15 1984.45 1980.47 1976.93 1978.47 1984.68 1988.79 1990.08 1990.00 1989.62 1989.54 1990.05 1991.16 1992.74 1994.91 1997.85 2001.10 2004.45 2008.84 2014.51 2021.33 2029.04 2036.76 2043.26 2048.44 2053.10 2057.75 2062.63 2067.77 2072.96 2077.89 2082.40 2086.58 2090.75 2095.32 2100.49 2106.39 2112.97 2119.62 2125.93 2132.17 2137.92 2142.20 2144.59 2145.40 2145.09 2144.02 2142.48 2140.74 2139.04 2137.60 2136.49 2135.72 2135.22 2134.90 2134.77 2134.95 2135.74 2137.59 2141.17 2146.68 2153.14 2159.21 2163.91 2167.08 2169.01 2170.05 2170.47 2170.34 2169.60 2168.30 2166.46 2164.05 2160.85 2156.52 2151.46 2146.43 2141.76 2137.30 2132.90 2129.07 2126.27 2124.38 2122.63 2119.79 2113.64 2107.10 2102.00 2096.28 2089.62 2083.52 2078.69 2073.41 2069.09 2066.52 2063.45 2060.04 2057.28 2054.25 2050.50 2046.53 2043.33 2041.34 2039.74 2038.48 2038.80 2041.97 2047.68 2053.96 2058.84 2062.16 2064.35 2065.40 2065.57 2065.68 2066.38 2066.98 2066.15 2062.36 2056.21 2050.27 2044.01 2039.68 2044.75 2056.40 2067.71 2074.23 2073.29 2066.46 2056.79 2047.34 2041.83 2042.41 2046.82 2053.07 2060.04 2067.01 2075.18 2085.28 2095.78 2103.77 2107.85 2107.26 2104.23 2101.64 2098.34 2092.51 2085.59 2078.54 2070.74 2062.24 2052.96 2043.51 2035.71 2029.94 2024.57 2018.08 2010.61 2003.02 1994.93 1986.42 1977.96 1969.71 1962.68 1957.53 1954.19 1952.16 1950.83 1949.47 1947.50 1944.88 1942.00 1939.04 1936.88 1937.10 1939.92 1944.42 1949.72 1955.41 1961.18 1966.87 1972.40 1977.92 1983.48 1989.14 1994.97 2001.01 2007.29 2013.70 2018.47 -99999.00 -99999.00 -99999.00 -99999.00 -99999.00 -99999.00 -99999.00 -99999.00 -99999.00 -99999.00 -99999.00 -99999.00 -99999.00 -99999.00 -99999.00 -99999.00 -99999.00 -99999.00 -99999.00 -99999.00 -99999.00 -99999.00 -99999.00 -99999.00 -99999.00 -99999.00 -99999.00 -99999.00 -99999.00 -99999.00 -99999.00 -99999.00 -99999.00 -99999.00 -99999.00 -99999.00 -99999.00 -99999.00 -99999.00 -99999.00 -99999.00 -99999.00 -99999.00 -99999.00 -99999.00 -99999.00
2015.41 2012.46 2009.45 2006.24 2002.43 1997.36 1991.10 1984.87 1979.07 1973.66 1968.82 1964.30 1958.43 1949.53 1938.69 1925.07 1912.73 1906.53 1899.18 1889.64 1882.10 1876.38 1870.25 1862.41 1852.06 1841.66 1837.39 1834.94 1829.46 1820.74 1815.08 1815.54 1818.27 1820.61 1821.75 1822.46 1823.46 1825.02 1827.28 1830.31 1833.98 1838.09 1842.96 1849.27 1855.88 1860.79 1864.05 1867.13 1870.71 1873.96 1876.60 1879.12 1881.69 1884.28 1886.64 1888.33 1889.63 1891.24 1893.51 1896.52 1899.91 1902.87 1905.55 1907.94 1910.52 1914.48 1920.83 1927.96 1934.01 1938.73 1942.50 1944.60 1944.83 1944.38 1944.23 1944.18 1942.89 1939.93 1938.85 1941.53 1944.90 1947.19 1948.34 1948.40 1947.43 1945.65 1943.32 1939.50 1933.70 1927.33 1921.22 1915.97 1912.80 1913.58 1918.04 1923.59 1930.35 1939.10 1950.09 1962.60 1974.20 1981.19 1982.64 1982.08 1981.87 1982.25 1983.14 1984.63 1986.52 1988.36 1989.78 1990.63 1990.75 1989.91 1987.78 1984.38 1980.64 1978.89 1981.28 1987.05 1991.97 1994.22 1994.61 1994.29 1993.95 1994.03 1994.80 1995.95 1997.70 2000.59 2004.06 2007.66 2011.77 2016.75 2022.72 2029.38 2036.07 2042.05 2047.20 2051.97 2056.81 2062.04 2067.72 2073.50 2078.96 2083.88 2088.44 2092.99 2097.80 2103.04 2108.86 2115.32 2121.91 2128.07 2133.91 2139.25 2143.47 2146.17 2147.41 2147.41 2146.47 2144.90 2143.03 2141.16 2139.58 2138.39 2137.63 2137.25 2137.05 2136.99 2137.24 2138.04 2139.96 2143.67 2149.19 2155.62 2161.38 2165.48 2168.03 2169.37 2169.92 2170.11 2169.91 2169.08 2167.69 2165.88 2163.56 2160.48 2156.63 2152.17 2147.56 2142.99 2138.08 2132.78 2127.98 2124.57 2122.66 2120.60 2117.87 2113.01 2106.49 2101.04 2096.77 2091.76 2085.25 2080.04 2074.77 2070.09 2066.98 2064.00 2061.05 2058.49 2055.69 2052.34 2048.83 2045.68 2043.11 2040.88 2039.02 2038.88 2042.87 2050.95 2059.80 2066.15 2069.90 2072.45 2074.02 2074.30 2074.25 2074.45 2074.29 2072.10 2066.65 2061.19 2058.36 2052.72 2046.13 2051.72 2064.76 2075.57 2080.34 2077.78 2069.96 2059.90 2050.73 2045.66 2046.01 2050.40 2056.90 2064.05 2071.40 2080.33 2091.29 2102.17 2110.28 2114.70 2114.50 2111.26 2107.52 2102.81 2095.77 2087.46 2079.02 2070.45 2061.36 2051.68 2042.09 2034.08 2028.05 2022.42 2015.03 2006.58 1999.42 1992.77 1985.91 1979.04 1972.30 1966.27 1961.47 1958.06 1955.75 1954.06 1952.52 1950.71 1948.46 1945.78 1942.77 1940.11 1939.11 1940.67 1944.58 1949.91 1955.84 1961.74 1967.28 1972.64 1978.04 1983.50 1989.00 1994.60 2000.50 2006.90 2013.68 2018.76 -99999.00 -99999.00 -99999.00 -99999.00 -99999.00 -99999.00 -99999.00 -99999.00 -99999.00 -99999.00 -99999.00 -99999.00 -99999.00 -99999.00 -99999.00 -99999.00 -99999.00 -99999.00 -99999.00 -99999.00 -99999.00 -99999.00 -99999.00 -99999.00 -99999.00 -99999.00 -99999.00 -99999.00 -99999.00 -99999.00 -99999.00 -99999.00 -99999.00 -99999.00 -99999.00 -99999.00 -99999.00 -99999.00 -99999.00 -99999.00 -99999.00 -99999.00 -99999.00 -99999.00 -99999.00 -99999.00
2019.32 2016.20 2013.40 2010.52 2007.14 2002.67 1997.08 1991.17 1985.35 1980.01 1975.91 1972.60 1968.01 1960.13 1949.35 1936.33 1924.78 1917.62 1909.83 1900.35 1891.89 1885.15 1878.37 1870.39 1859.64 1847.27 1838.82 1832.34 1824.91 1818.25 1815.79 1817.99 1821.33 1823.66 1825.28 1826.80 1828.68 1831.05 1834.30 1838.65 1843.75 1849.04 1854.50 1861.84 1869.77 1874.87 1878.04 1880.99 1884.19 1886.90 1888.95 1891.22 1893.70 1895.96 1897.74 1898.97 1900.00 1901.24 1902.70 1904.47 1907.09 1910.68 1914.60 1918.25 1921.89 1926.44 1932.55 1938.60 1943.26 1946.90 1949.88 1951.54 1951.43 1950.55 1949.76 1948.76 1946.76 1943.96 1942.57 1944.38 1947.46 1949.98 1951.46 1951.95 1951.58 1950.44 1948.44 1944.93 1939.73 1933.76 1927.81 1922.36 1918.49 1919.02 1923.63 1928.82 1934.47 1941.77 1951.60 1963.70 1975.63 1983.46 1986.21 1986.31 1985.95 1985.97 1986.53 1987.63 1989.11 1990.64 1991.90 1992.69 1992.79 1991.80 1989.27 1985.21 1981.00 1979.64 1982.62 1988.66 1994.47 1997.58 1998.47 1998.47 1998.13 1997.95 1998.72 1999.77 2001.22 2003.98 2007.49 2011.17 2014.97 2019.21 2024.23 2029.78 2035.41 2040.78 2045.80 2050.65 2055.70 2061.26 2067.40 2073.75 2079.73 2084.96 2089.79 2094.63 2099.61 2104.84 2110.46 2116.56 2123.03 2129.43 2135.29 2140.52 2144.92 2148.02 2149.65 2149.94 2149.11 2147.53 2145.55 2143.53 2141.74 2140.35 2139.50 2139.18 2139.04 2138.99 2139.33 2140.20 2142.12 2145.71 2150.90 2157.06 2162.75 2166.83 2169.15 2170.09 2170.19 2170.06 2169.58 2168.30 2166.53 2164.57 2162.45 2159.75 2156.04 2151.79 2147.39 2142.86 2137.71 2131.88 2126.17 2121.79 2119.49 2116.78 2113.26 2108.99 2102.57 2097.28 2093.92 2089.74 2082.50 2077.76 2075.09 2072.38 2069.79 2066.96 2064.14 2061.53 2058.68 2055.38 2051.91 2048.51 2045.33 2042.41 2039.88 2039.14 2043.70 2053.70 2065.18 2073.58 2077.58 2080.02 2081.77 2082.09 2081.96 2082.02 2081.86 2080.32 2076.84 2071.96 2066.98 2060.00 2055.51 2062.11 2074.37 2083.30 2085.62 2081.96 2073.63 2063.01 2053.97 2049.44 2049.92 2054.31 2060.93 2068.30 2075.91 2085.32 2096.64 2107.35 2115.52 2120.48 2120.67 2117.03 2112.01 2105.44 2097.22 2088.10 2079.05 2070.63 2061.79 2051.83 2041.54 2032.68 2026.08 2020.52 2012.98 2003.91 1996.82 1991.47 1986.07 1980.65 1975.41 1970.29 1965.71 1962.06 1959.32 1957.22 1955.49 1953.74 1951.52 1948.66 1945.32 1942.09 1940.09 1940.84 1944.51 1949.82 1955.89 1961.82 1967.16 1972.35 1977.69 1983.15 1988.54 1993.89 1999.55 2005.99 2013.00 2019.51 2023.22 -99999.00 -99999.00 -99999.00 -99999.00 -99999.00 -99999.00 -99999.00 -99999.00 -99999.00 -99999.00 -99999.00 -99999.00 -99999.00 -99999.00 -99999.00 -99999.00 -99999.00 -99999.00 -99999.00 -99999.00 -99999.00 -99999.00 -99999.00 -99999.00 -99999.00 -99999.00 -99999.00 -99999.00 -99999.00 -99999.00 -99999.00 -99999.00 -99999.00 -99999.00 -99999.00 -99999.00 -99999.00 -99999.00 -99999.00 -99999.00 -99999.00 -99999.00 -99999.00 -99999.00 -99999.00
2023.47 2020.00 2017.08 2014.20 2010.91 2006.85 2001.98 1996.59 1990.94 1985.41 1980.80 1976.95 1972.62 1966.42 1957.83 1947.16 1936.36 1927.32 1918.39 1908.61 1899.41 1891.74 1884.34 1875.92 1865.19 1853.25 1843.18 1833.70 1823.48 1816.85 1816.14 1819.32 1823.21 1826.29 1828.96 1831.80 1835.04 1838.62 1842.90 1848.39 1855.02 1862.01 1868.54 1875.55 1882.79 1887.43 1890.43 1893.44 1896.71 1899.17 1900.91 1903.24 1905.68 1907.53 1908.71 1909.56 1910.59 1911.80 1912.75 1913.35 1915.28 1920.11 1925.57 1930.40 1935.14 1940.61 1946.42 1950.77 1953.54 1955.70 1957.50 1958.28 1957.30 1955.73 1954.37 1952.53 1950.02 1947.56 1946.54 1947.77 1950.27 1952.61 1954.13 1954.80 1954.72 1953.88 1952.11 1949.16 1945.13 1940.55 1935.84 1931.11 1927.19 1926.76 1930.12 1934.56 1939.17 1944.81 1953.06 1964.69 1977.10 1985.53 1989.14 1989.78 1989.40 1989.19 1989.56 1990.51 1991.85 1993.30 1994.55 1995.39 1995.71 1995.03 1992.64 1988.28 1982.90 1980.09 1983.30 1990.25 1997.09 2000.78 2001.94 2002.28 2002.20 2002.12 2002.90 2004.08 2005.64 2008.24 2011.62 2015.16 2018.63 2022.19 2026.23 2030.66 2035.28 2040.02 2044.80 2049.62 2054.73 2060.46 2066.86 2073.54 2079.83 2085.31 2090.39 2095.53 2100.74 2105.98 2111.50 2117.49 2124.07 2130.80 2136.98 2142.38 2146.95 2150.32 2152.27 2152.77 2152.01 2150.39 2148.30 2146.10 2144.06 2142.40 2141.31 2140.79 2140.54 2140.45 2140.83 2141.81 2143.81 2147.19 2151.89 2157.56 2163.66 2168.51 2170.95 2171.67 2171.43 2170.74 2169.48 2167.41 2164.98 2162.63 2160.48 2157.99 2154.59 2150.57 2146.25 2141.78 2136.86 2131.27 2125.54 2120.71 2117.63 2114.48 2111.13 2108.05 2101.55 2095.73 2091.40 2085.07 2078.69 2076.59 2076.28 2075.68 2073.83 2070.85 2067.92 2065.29 2062.42 2059.10 2055.54 2051.89 2048.22 2044.69 2041.76 2041.13 2045.98 2056.65 2070.19 2080.35 2084.63 2086.65 2087.93 2088.28 2088.26 2088.34 2088.31 2087.54 2085.44 2080.69 2074.45 2066.57 2063.89 2071.51 2081.92 2088.90 2090.21 2086.08 2077.11 2065.55 2056.42 2052.54 2053.62 2058.43 2065.57 2073.71 2081.95 2091.42 2102.44 2112.79 2120.66 2125.47 2125.98 2122.38 2116.31 2108.38 2099.18 2089.52 2080.29 2072.04 2063.51 2053.10 2041.55 2031.48 2023.94 2018.88 2013.13 2005.27 1998.13 1992.74 1988.06 1983.65 1979.26 1974.56 1969.98 1965.96 1962.55 1959.81 1958.03 1956.66 1954.52 1951.57 1947.96 1944.29 1941.69 1941.84 1944.92 1949.69 1955.33 1961.01 1966.19 1971.30 1976.77 1982.45 1987.93 1993.16 1998.61 2005.01 2012.14 2019.30 2022.81 -99999.00 -99999.00 -99999.00 -99999.00 -99999.00 -99999.00 -99999.00 -99999.00 -99999.00 -99999.00 -99999.00 -99999.00 -99999.00 -99999.00 -99999.00 -99999.00 -99999.00 -99999.00 -99999.00 -99999.00 -99999.00 -99999.00 -99999.00 -99999.00 -99999.00 -99999.00 -99999.00 -99999.00 -99999.00 -99999.00 -99999.00 -99999.00 -99999.00 -99999.00 -99999.00 -99999.00 -99999.00 -99999.00 -99999.00 -99999.00 -99999.00 -99999.00 -99999.00 -99999.00 -99999.00
2027.48 2023.77 2020.52 2017.41 2014.13 2010.40 2006.12 2001.32 1995.96 1990.20 1984.62 1979.60 1975.25 1970.33 1963.77 1955.01 1944.86 1935.07 1925.32 1915.18 1905.57 1897.16 1889.36 1880.98 1870.23 1858.31 1848.29 1837.56 1824.36 1816.59 1816.60 1820.37 1824.82 1828.84 1832.76 1837.18 1842.24 1847.52 1852.77 1858.71 1866.33 1874.47 1881.49 1887.33 1892.99 1897.43 1900.74 1904.02 1907.45 1909.87 1912.14 1915.24 1917.83 1919.26 1920.00 1920.70 1921.92 1923.30 1924.36 1925.24 1927.78 1933.23 1938.89 1943.71 1948.55 1954.02 1959.19 1961.91 1962.94 1963.73 1964.39 1964.25 1962.67 1960.73 1958.92 1956.35 1953.34 1951.04 1950.29 1951.40 1953.60 1955.67 1957.00 1957.64 1957.74 1957.12 1955.68 1953.43 1950.74 1948.09 1945.44 1942.39 1939.39 1937.93 1938.76 1941.24 1944.45 1948.84 1955.73 1966.73 1979.51 1988.14 1991.95 1992.64 1992.18 1991.97 1992.47 1993.62 1995.13 1996.78 1998.29 1999.29 1999.92 1999.77 1998.04 1994.22 1988.05 1983.25 1985.38 1992.06 1998.93 2002.99 2004.73 2005.68 2006.27 2006.77 2007.57 2008.71 2010.33 2012.82 2016.09 2019.45 2022.55 2025.63 2028.90 2032.37 2036.04 2040.19 2044.73 2049.32 2054.16 2059.75 2066.23 2073.04 2079.39 2084.93 2090.15 2095.62 2101.16 2106.55 2112.16 2118.37 2125.27 2132.44 2139.08 2144.77 2149.46 2153.03 2155.25 2155.94 2155.18 2153.50 2151.31 2148.91 2146.56 2144.53 2143.03 2142.10 2141.59 2141.46 2141.86 2143.00 2145.15 2148.52 2153.10 2158.93 2165.73 2171.01 2173.37 2173.89 2173.31 2171.89 2169.63 2166.66 2163.42 2160.48 2158.11 2155.71 2152.73 2149.12 2145.02 2140.70 2136.49 2131.95 2127.11 2122.75 2119.39 2116.64 2115.20 2114.84 2110.56 2103.46 2097.48 2089.89 2083.43 2081.68 2081.73 2081.08 2078.43 2074.64 2071.58 2069.13 2066.34 2063.01 2059.47 2055.74 2051.87 2048.10 2045.18 2044.92 2049.65 2060.01 2073.75 2084.34 2089.50 2091.89 2092.90 2093.18 2093.24 2093.31 2093.20 2092.38 2090.04 2085.62 2081.20 2075.87 2072.97 2078.57 2086.83 2092.69 2093.89 2089.27 2079.29 2067.17 2058.20 2055.24 2057.21 2062.65 2070.39 2079.32 2088.32 2097.98 2108.75 2118.79 2126.41 2131.16 2131.91 2128.06 2121.00 2112.10 2102.28 2092.33 2082.85 2074.08 2065.17 2054.29 2042.07 2031.44 2023.73 2019.79 2016.02 2009.47 2002.38 1996.43 1991.60 1987.40 1983.29 1978.81 1974.27 1969.95 1965.78 1962.02 1960.27 1959.54 1957.74 1955.03 1951.38 1947.64 1944.99 1944.50 1946.32 1949.83 1954.45 1959.52 1964.37 1969.33 1975.09 1981.35 1987.26 1992.62 1998.07 2004.31 2011.33 2018.59 2022.19 -99999.00 -99999.00 -99999.00 -99999.00 -99999.00 -99999.00 -99999.00 -99999.00 -99999.00 -99999.00 -99999.00 -99999.00 -99999.00 -99999.00 -99999.00 -99999.00 -99999.00 -99999.00 -99999.00 -99999.00 -99999.00 -99999.00 -99999.00 -99999.00 -99999.00 -99999.00 -99999.00 -99999.00 -99999.00 -99999.00 -99999.00 -99999.00 -99999.00 -99999.00 -99999.00 -99999.00 -99999.00 -99999.00 -99999.00 -99999.00 -99999.00 -99999.00 -99999.00 -99999.00 -99999.00
2030.69 2027.00 2023.53 2020.19 2016.89 2013.42 2009.58 2005.25 2000.22 1994.46 1988.35 1982.52 1977.71 1972.89 1966.76 1958.80 1949.72 1940.36 1930.54 1920.45 1910.84 1901.86 1893.78 1885.79 1875.46 1863.44 1852.39 1840.23 1826.13 1817.75 1817.85 1822.12 1827.15 1831.86 1836.75 1842.69 1849.46 1856.24 1862.21 1868.16 1875.66 1883.49 1889.87 1895.47 1901.38 1906.49 1910.36 1914.20 1918.79 1921.98 1924.79 1928.13 1930.31 1931.15 1931.72 1932.68 1934.10 1935.52 1937.06 1939.40 1943.55 1949.01 1953.40 1956.82 1960.63 1964.88 1968.50 1970.12 1970.37 1970.46 1970.48 1969.84 1968.25 1966.21 1963.80 1960.49 1957.01 1954.65 1953.89 1955.13 1957.44 1959.40 1960.63 1961.28 1961.49 1961.04 1959.93 1958.25 1956.72 1956.00 1955.60 1954.52 1952.45 1950.05 1948.60 1948.75 1950.46 1954.25 1960.90 1970.56 1982.09 1991.05 1994.97 1995.17 1994.51 1994.58 1995.59 1997.34 1999.44 2001.63 2003.61 2004.88 2005.51 2005.43 2004.28 2001.53 1995.93 1990.37 1989.98 1994.15 1999.59 2003.74 2006.47 2008.53 2010.17 2011.42 2012.43 2013.48 2014.93 2017.23 2020.37 2023.59 2026.51 2029.37 2032.29 2035.20 2038.20 2041.91 2046.19 2050.32 2054.45 2059.52 2065.95 2072.76 2078.90 2084.04 2089.17 2094.96 2100.94 2106.69 2112.54 2119.00 2126.31 2134.01 2141.15 2147.13 2152.04 2155.84 2158.37 2159.29 2158.59 2156.93 2154.67 2152.04 2149.31 2146.80 2144.81 2143.44 2142.65 2142.44 2142.89 2144.20 2146.59 2150.18 2155.04 2161.26 2168.28 2173.53 2175.90 2176.35 2175.56 2173.54 2170.38 2166.48 2162.39 2158.89 2156.27 2153.93 2151.33 2148.28 2144.78 2141.15 2137.82 2134.36 2130.53 2126.81 2123.68 2121.78 2121.79 2122.61 2120.57 2113.95 2107.07 2100.42 2094.31 2091.33 2090.20 2087.46 2082.82 2078.14 2074.95 2072.60 2069.91 2066.68 2063.28 2059.76 2056.09 2052.42 2049.43 2048.95 2053.02 2062.30 2074.49 2085.19 2092.23 2095.92 2097.20 2097.52 2097.62 2097.61 2097.28 2096.21 2093.80 2089.52 2084.12 2079.42 2078.63 2083.35 2090.37 2095.88 2097.55 2092.56 2081.37 2068.76 2060.18 2058.30 2061.13 2067.10 2075.27 2084.72 2094.52 2104.60 2115.03 2124.50 2131.86 2136.81 2137.92 2133.64 2125.91 2116.40 2106.20 2095.86 2085.74 2075.92 2065.83 2054.51 2042.65 2032.60 2025.93 2022.72 2019.84 2014.48 2007.71 2001.35 1996.06 1991.69 1987.55 1983.16 1978.76 1974.48 1970.04 1965.97 1963.73 1962.74 1961.40 1959.14 1955.67 1952.11 1949.53 1948.39 1948.79 1950.62 1953.69 1957.65 1961.81 1966.34 1972.56 1979.94 1986.51 1992.00 1997.44 2003.55 2010.46 2017.79 2021.48 -99999.00 -99999.00 -99999.00 -99999.00 -99999.00 -99999.00 -99999.00 -99999.00 -99999.00 -99999.00 -99999.00 -99999.00 -99999.00 -99999.00 -99999.00 -99999.00 -99999.00 -99999.00 -99999.00 -99999.00 -99999.00 -99999.00 -99999.00 -99999.00 -99999.00 -99999.00 -99999.00 -99999.00 -99999.00 -99999.00 -99999.00 -99999.00 -99999.00 -99999.00 -99999.00 -99999.00 -99999.00 -99999.00 -99999.00 -99999.00 -99999.00 -99999.00 -99999.00 -99999.00 -99999.00
2032.84 2029.42 2025.97 2022.57 2019.27 2015.96 2012.40 2008.41 2003.78 1998.41 1992.42 1986.37 1980.80 1975.16 1968.48 1960.67 1952.56 1943.97 1934.75 1925.28 1915.89 1906.46 1897.90 1889.92 1880.23 1868.18 1855.04 1841.02 1826.96 1818.96 1819.56 1824.41 1830.39 1835.74 1841.14 1848.12 1855.81 1863.13 1869.44 1875.32 1882.05 1889.31 1895.77 1902.14 1909.25 1915.50 1920.34 1925.63 1932.12 1936.59 1939.42 1941.90 1943.11 1943.18 1943.51 1944.52 1946.00 1947.62 1949.78 1953.11 1958.02 1963.32 1966.47 1968.48 1971.05 1973.81 1975.89 1976.59 1976.43 1976.44 1976.36 1975.62 1974.14 1972.12 1969.38 1965.70 1961.90 1959.06 1957.72 1958.98 1961.60 1963.77 1965.26 1966.13 1966.40 1966.06 1965.19 1964.01 1963.30 1963.68 1964.55 1964.74 1963.47 1960.90 1958.38 1957.15 1957.85 1961.07 1967.56 1975.94 1985.85 1995.02 1998.53 1997.63 1996.85 1997.60 1999.44 2002.05 2005.04 2007.97 2010.35 2011.66 2011.81 2011.18 2009.89 2007.25 2002.32 1996.94 1994.67 1996.23 1999.88 2003.78 2007.41 2010.77 2013.67 2015.76 2017.06 2018.10 2019.44 2021.55 2024.49 2027.58 2030.49 2033.37 2036.34 2039.23 2042.12 2045.61 2049.53 2053.10 2056.26 2060.53 2066.84 2073.25 2078.39 2082.67 2087.90 2094.29 2100.83 2106.94 2113.00 2119.62 2127.18 2135.17 2142.68 2149.12 2154.43 2158.52 2161.33 2162.61 2162.28 2160.82 2158.56 2155.69 2152.47 2149.38 2146.87 2145.11 2144.10 2143.81 2144.33 2145.83 2148.49 2152.47 2157.81 2164.35 2171.09 2176.13 2178.56 2179.01 2178.23 2175.81 2171.95 2167.23 2162.31 2158.28 2155.43 2153.11 2150.85 2148.45 2145.85 2143.21 2140.73 2138.08 2135.02 2131.76 2128.97 2127.47 2127.50 2127.88 2126.19 2121.10 2114.70 2108.52 2103.22 2099.92 2097.24 2093.14 2087.73 2082.55 2078.88 2076.11 2073.23 2070.07 2066.87 2063.67 2060.44 2056.99 2053.67 2052.59 2055.78 2064.08 2075.15 2086.05 2094.88 2100.04 2101.88 2102.41 2102.52 2102.31 2101.64 2100.38 2098.17 2094.15 2088.36 2083.78 2083.79 2088.16 2094.27 2099.52 2101.56 2096.55 2084.33 2071.23 2063.22 2062.09 2065.61 2072.11 2080.61 2090.56 2101.10 2111.51 2121.19 2129.80 2136.97 2141.99 2143.16 2138.94 2131.01 2121.14 2110.61 2099.82 2088.89 2077.99 2066.92 2055.16 2043.46 2034.04 2028.10 2024.97 2022.53 2018.47 2012.62 2006.45 2000.99 1996.55 1992.29 1987.73 1983.43 1979.44 1975.12 1971.02 1968.24 1966.72 1965.54 1963.71 1960.83 1957.79 1955.45 1953.74 1952.73 1952.63 1953.76 1956.09 1958.96 1962.52 1969.26 1978.09 1985.33 1990.89 1996.31 2002.39 2009.37 2016.93 2021.63 -99999.00 -99999.00 -99999.00 -99999.00 -99999.00 -99999.00 -99999.00 -99999.00 -99999.00 -99999.00 -99999.00 -99999.00 -99999.00 -99999.00 -99999.00 -99999.00 -99999.00 -99999.00 -99999.00 -99999.00 -99999.00 -99999.00 -99999.00 -99999.00 -99999.00 -99999.00 -99999.00 -99999.00 -99999.00 -99999.00 -99999.00 -99999.00 -99999.00 -99999.00 -99999.00 -99999.00 -99999.00 -99999.00 -99999.00 -99999.00 -99999.00 -99999.00 -99999.00 -99999.00 -99999.00
